-0.3674723296849585,0.14401809792099102,0.46381013832131884,-0.1366463197701754,0.25949261923598116,0.9560289555527683
-0.36817232401248645,0.14543154609979803,0.46877948809104986,-0.14284702802360508,0.2672108336522619,0.9529916562927959
-0.36891951446965743,0.14690237987039406,0.4738078371470916,-0.15060952401917557,0.27210218647529416,0.9504089495528132
-0.36972066319978747,0.14840396122489857,0.4788684961453959,-0.16020110829915507,0.2744329525357457,0.9481677907745208
-0.370584285451938,0.14991584985021406,0.4839535865874402,-0.17144907364221962,0.27407314441867536,0.9463028725813342
-0.37151875138161294,0.15141019467550942,0.4890409264010287,-0.18427259588438763,0.27219456181268736,0.9444330208784677
-0.3725239278045165,0.15287650723683344,0.49411887732823995,-0.198676648223349,0.26913123913826453,0.9423884366706957
-0.3736063904516558,0.15430701155380333,0.49915221493886347,-0.21497362919508356,0.2648430878359082,0.9400236579875191
-0.3747696263494898,0.15569680441075123,0.504128472812539,-0.23294883763095356,0.2601845343520965,0.9370372709398332
-0.37601800690673354,0.15703732412933108,0.5090202087406276,-0.25290577313942114,0.2551044000689883,0.9332525997703907
-0.3773513402347695,0.15832720314163423,0.5137976260475187,-0.2745625252711429,0.25062875690013736,0.9283321851209431
-0.37877249581058137,0.15956614888574333,0.5184460109506821,-0.2980099021071558,0.24610411620908096,0.922292178342108
-0.3802844167469408,0.1607581704942727,0.5229471127323344,-0.3230228716991065,0.2412315585788008,0.9151303511002711
-0.381884686814039,0.16190191440657192,0.5272873631229553,-0.3495179952614253,0.23594740433678607,0.9067336948493574
-0.3835729320564422,0.1629862900857138,0.5314635932481777,-0.3772291046535212,0.22888701794576982,0.8973900688207975
-0.3853448617455161,0.16400695169952634,0.5354731113885065,-0.4053157333863273,0.22126544034110784,0.8869953557827455
-0.3871908442974742,0.16496486886186784,0.5393150255921685,-0.43385491762756645,0.2122767958386858,0.8756189082008443
-0.38910661547915487,0.16585754614951076,0.5429939864469988,-0.4624289452447854,0.20220384031927693,0.8632920001713972
-0.39108988811718753,0.1666822971100827,0.5465238495312559,-0.490850015640114,0.1896725009065563,0.850347343469686
-0.39313805677660874,0.1674319028105346,0.5499146463572351,-0.5189709111740586,0.17422020398587854,0.8368491583781907
-0.39525250745881385,0.16810181465701235,0.5531836027122315,-0.5467970560695915,0.15667865888619864,0.8224747882599504
-0.397432722342383,0.16868592117269543,0.5563326885263706,-0.5739900115838765,0.13722085643446658,0.8072830378258501
-0.3996765791378589,0.1691792914828963,0.5593721216297909,-0.6004958840644734,0.11692933195687266,0.7910323789515483
-0.4019829200513748,0.16956846108857798,0.5622979913030705,-0.6260355552393214,0.09669776364292763,0.773775824178199
-0.40434827530049194,0.16986250311386514,0.5651111411824152,-0.6504170362037105,0.07742126012109875,0.7556213519331242
-0.40677093883137483,0.17006652858129634,0.5678213240304688,-0.673745522086132,0.05999980796068207,0.7365235872078821
-0.4092451630787625,0.17020804536534234,0.5704228839017573,-0.6952080516532999,0.045851981059938055,0.7173446596645867
-0.41176779455105933,0.17031966254361341,0.5729276987331127,-0.7153916050588518,0.03321347098126532,0.6979338913942325
-0.41433309171683586,0.17042130556373886,0.5753354369613719,-0.7342545144368178,0.020285017131615644,0.6785711651029116
-0.4169362577378574,0.1705141726051732,0.5776630851298524,-0.7514013298373434,0.004079316054940595,0.6598328581536355
-0.41957608318195994,0.17057004492599104,0.5799038456531537,-0.7671716312779605,-0.01822021106665625,0.641183056600063
-0.42224801587435185,0.17055968119247145,0.5820709865598374,-0.7810385052180752,-0.04771587046797499,0.6226572484699735
-0.4249503450253821,0.17042879791490023,0.5841627164914489,-0.7927781629452545,-0.08697032164723421,0.603273526279518
-0.4276863064572679,0.17013152645306817,0.5861826151872227,-0.8013473866166754,-0.1326732866703381,0.5833010928900398
-0.4304539505957238,0.1696333978478648,0.5881414281583478,-0.8059539253679399,-0.18393072540478977,0.5626790901002784
-0.43325727088130783,0.16890917876819983,0.5900505791410646,-0.807545410222756,-0.23699799169145033,0.5400947716488096
-0.4360930211537043,0.16795974116950235,0.5919079229531361,-0.8064305521053193,-0.2877856849789078,0.5165744517030731
-0.4389628578860444,0.1667905686885987,0.5937158460881695,-0.8047953130395138,-0.3315715927242222,0.4923055788917628
-0.44186354536522743,0.16543756986488173,0.5954629575974356,-0.803289369392198,-0.36710532488747116,0.46899879473272577
-0.4447953591860041,0.16393683452431035,0.5971433825300811,-0.8037794427133709,-0.39410233547640916,0.4456702330686029
-0.4477557817760637,0.16233903484315676,0.5987550450108585,-0.8067709908293946,-0.41170283893165666,0.4238175795926487
-0.4507472264564335,0.160683098628831,0.6002927689309336,-0.8132646763229149,-0.420397679523114,0.402326182713685
-0.4537744921606217,0.1590232787857916,0.6017416640393553,-0.8226403609643161,-0.4205241873013684,0.38265159663461906
-0.4568468092375393,0.15739494685226935,0.6031105944770697,-0.8341354761039768,-0.414336058661815,0.3640654309288165
-0.4599632707717437,0.15583807291847834,0.6044127262628132,-0.8468791093083795,-0.4020271325433899,0.3480947556571134
-0.46312707770701933,0.15436895305149534,0.6056524560472056,-0.8590211985542143,-0.38808470644155363,0.3338754873611631
-0.46633796239591085,0.1529811479706214,0.6068433692262041,-0.8697783949360682,-0.3744128800226708,0.3214040120713587
-0.4695910362253922,0.15166807602968335,0.6079772821020442,-0.8778835290061253,-0.3641366690468825,0.31100642397737166
-0.4728767085618105,0.15040853130236698,0.6090825561598606,-0.8828353843609121,-0.35826125260590774,0.3037277712056743
-0.47617401704006734,0.14917242262750796,0.6101656818716437,-0.8844606352675686,-0.35860894908965335,0.2985448145503511
-0.4794641919976832,0.1479171040329792,0.611238626331924,-0.8821357421632281,-0.36651804375470354,0.29580577411598297
-0.4827281914203957,0.14661476088399167,0.6123001708978935,-0.8763737480674205,-0.38061569253890776,0.2951283590090738
-0.4859442230505656,0.1452367843384782,0.6133593066240194,-0.8669686855218834,-0.40094719362959114,0.2959841993164716
-0.4890797023192629,0.14377050490268556,0.6144313303619771,-0.8551150449151734,-0.42456238094176896,0.29753158596824153
-0.4921155051156654,0.14221316361992786,0.6154999793848717,-0.8409819329214246,-0.45108411011581667,0.2987850633829716
-0.4950386600539427,0.1405745618427427,0.6165699473634372,-0.8260138740526655,-0.47765760583779315,0.2992395218847513
-0.4978499059716919,0.13886272479552542,0.6176152979034937,-0.8101282742598158,-0.5048166446324346,0.29808108720088744
-0.5005571722350891,0.13707927422759292,0.6186418735130822,-0.7951026807738976,-0.5297751682838138,0.295211785157738
-0.5031657015802672,0.1352455186750393,0.6196401401251368,-0.7809148849790165,-0.5532002759667313,0.2900713655094928
-0.5056901303445901,0.1333530453585111,0.6206031730545629,-0.7686419758318861,-0.5736779018484688,0.2829897134526146
-0.5081437702433155,0.13143051611808315,0.6215149711517061,-0.7595393412173812,-0.5899432979892455,0.27398338325642796
-0.5105374778639423,0.1294759844351967,0.6223795985527907,-0.7532263128896165,-0.6028173775110414,0.2631754755698639
-0.5128721685005064,0.1275224574740897,0.6231923823094545,-0.7502097890422235,-0.610954260796777,0.2528243731120209
-0.5151493978986154,0.12558488968880116,0.6239536704129364,-0.7504861505349448,-0.6152455708297754,0.24133674695243568
-0.5173716354850901,0.12370709121741251,0.6246604685470296,-0.7541748956951227,-0.6154157068229501,0.22909328776474294
-0.51954773640312,0.12190311569832203,0.6253046556505519,-0.7605988610665374,-0.6124293760854905,0.2154521567583462
-0.5216853652696165,0.1201827773444384,0.625890504650304,-0.7690550013448068,-0.6068017391396249,0.20086327261016657
-0.5237895340746326,0.11854752085424718,0.6264256874614543,-0.7784796259168156,-0.5999640526771396,0.1844250729365109
-0.5258672532806051,0.1169899040165664,0.6269008416632462,-0.7878001846618531,-0.59311299881019,0.16609587499132472
-0.5279279488846401,0.11548283539105246,0.6273096686540275,-0.7954683671401892,-0.5881241709598803,0.14608229328729327
-0.5299711423629925,0.11402039318893904,0.6276612855504248,-0.8012365571937995,-0.5852689523409398,0.12441958383617159
-0.5320045953728406,0.11256727399727502,0.6279487917734847,-0.8049387417153933,-0.5847632666761464,0.10062576226733226
-0.5340264914029498,0.11111979081858088,0.628171277850599,-0.8064701291137937,-0.586391904484792,0.0758318218288301
-0.5360357661765719,0.10966646228028083,0.6283392170327022,-0.806464788324469,-0.5892039504555896,0.04953029335968386
-0.5380326329554478,0.10821079555624065,0.6284374783655235,-0.8054347506541101,-0.5923159999767179,0.020895420798162655
-0.5400208836137298,0.10673969746104982,0.6284594231133562,-0.8031991182024459,-0.5956518796354278,-0.008367485022108954
-0.5419986918709697,0.10525915826432071,0.6284062882059985,-0.8006701514412289,-0.5979437228435325,-0.0372909225294372
-0.5439628872594032,0.1037810912351343,0.6282756244355825,-0.7975149118172685,-0.599666722548935,-0.06610436669776804
-0.5459164246206479,0.10230039710597615,0.6280612740893199,-0.7942796703530078,-0.6002631290457865,-0.09382953251550713
-0.5478549019127105,0.1008300166753565,0.6277698153972171,-0.7914701640230588,-0.599662714996489,-0.11823539108216269
-0.5497762706974384,0.09936756056757419,0.6274166600766321,-0.7887841099015791,-0.5991417691711665,-0.1372908168859742
-0.5516774719833789,0.09791640015695101,0.6270163286219385,-0.7870462163989396,-0.5982346491000815,-0.15057741486762208
-0.5535506663699659,0.09649490765599726,0.6265968307740302,-0.7858218452798527,-0.5981498956793366,-0.15716465817659583
-0.5553957623133107,0.09508930691738764,0.6261795809907273,-0.7857834495831513,-0.5985469225165042,-0.15583950688841752
-0.5572102256016603,0.09370719534284773,0.6257734169407465,-0.7869270049577293,-0.5993885458360436,-0.1465580430710342
-0.5589846306760855,0.09236160110784407,0.625411295739831,-0.787622578446695,-0.6024385031651516,-0.12930013080082878
-0.5607154888315578,0.09104038863456775,0.6251181811399245,-0.7888199891759308,-0.6056723295707066,-0.10451819874489689
-0.5623965702582349,0.08975458837184376,0.6249051179297849,-0.7896699027767653,-0.6092288688897102,-0.07253709368246182
-0.564026615815983,0.08849715654925601,0.6247785105240342,-0.7887081993457365,-0.613742247187727,-0.03549408826501775
-0.565605931155678,0.08725371994950316,0.6247434129186438,-0.7883309462400998,-0.6152266884606747,0.005517336848584031
-0.5671277869367911,0.08604474411824466,0.6248081382605316,-0.787337474133045,-0.6146421888192978,0.048111137475843356
-0.5685914555807023,0.08487681901638407,0.6249651555683039,-0.7871191339076822,-0.6100511797654468,0.09100014891859648
-0.569999619741971,0.08374471272673796,0.6252005199629034,-0.7910002538568777,-0.5971793732852783,0.13302403738030685
-0.5713471854620603,0.08268941862609235,0.6254915024165564,-0.797979216602438,-0.5775173807781816,0.17234513271243884
-0.5726240096345249,0.08176464835991983,0.6258277433520019,-0.8079332895088206,-0.5501967340853972,0.21101505516246727
-0.57382684335124,0.08097666332375296,0.6261976371766411,-0.8178954118652664,-0.518799372031032,0.2487856644381932
-0.5749534402935162,0.08031672704280167,0.626585840152013,-0.8271162664884671,-0.4849835627498039,0.28402398767126313
-0.5759971037230757,0.07978749311838605,0.6269794302927959,-0.8356062678213539,-0.44742122147654384,0.3187105516767608
-0.5769550181854012,0.07935708282905722,0.6273737360368349,-0.838267688051896,-0.41635173720493707,0.35207742627802785
-0.5778195526610193,0.07900354344995038,0.6277665549902729,-0.8349689205775922,-0.3940128384514615,0.38416244585450166
-0.5785843773596266,0.07870706764329553,0.628153163328191,-0.8245481674258875,-0.38304290175567646,0.4164114011517956
-0.5792495768315866,0.0784217815668133,0.6285236187151911,-0.8030610540561656,-0.3977479007712255,0.4437223804252875
-0.5798041489083366,0.07814046014229213,0.6288705429580721,-0.7739300199549174,-0.43096257914486535,0.4640081675890918
-0.5802368177062339,0.0778814405782146,0.6291727864070806,-0.7393324660912626,-0.4740699687368807,0.47816855744101894
-0.5805506034458332,0.07764485792324748,0.6294175481821377,-0.696274144323296,-0.5343338393266976,0.4792594955733821
-0.580760245369993,0.0774256573056875,0.6295984235728164,-0.6403082774100141,-0.6150642949231854,0.4601100118350669
-0.5808866533217458,0.07722297042530156,0.6297148297296001,-0.5657923275439533,-0.7163342015744169,0.40834342623230596
-0.5809526832622235,0.07704466085792626,0.6297708675022153,-0.4733169262034033,-0.8229519856431227,0.31419916724174096
-0.5809810690225536,0.07689951468231941,0.6297846304964098,-0.3711691629857845,-0.9114714584402497,0.17735059316854948
-0.580994755942181,0.07677635494268752,0.6297727647144635,-0.27936471351574205,-0.9601531531040741,0.007828117690204197
-0.5810106724318462,0.07666657003385809,0.6297454745307861,-0.22637290468538057,-0.9620197349886133,-0.15255601435781482
-0.5810332365425526,0.07656062573584906,0.6297149993407735,-0.2044698907870811,-0.9415126105276037,-0.26785456497699606
-0.5810598359765276,0.0764440569050115,0.6296777862882668,-0.1899955576927698,-0.918071881331156,-0.34791623814660483
-0.5810861919258122,0.07631769081829114,0.6296279107593273,-0.17248013477018997,-0.89318283831572,-0.41530112021030174
-0.5811128539557684,0.07617950010069126,0.629563709389154,-0.1548093266105288,-0.8666254171893989,-0.4743358079206071
-0.5811409960830383,0.07602225058735128,0.6294776580450161,-0.13909912755098786,-0.8405821580178963,-0.5235198834204202
-0.5811693473779022,0.07584661946165346,0.6293639880550224,-0.1244122697336226,-0.8147585541350381,-0.5662950517208417
-0.5811984089510929,0.07564953040841259,0.6292210613934133,-0.11120674824467837,-0.7903646149500919,-0.602458989956692
-0.581227234174148,0.07543521569258992,0.6290499280686639,-0.10062431438997153,-0.770062458605548,-0.6299829816748442
-0.5812553791268803,0.07520601684407503,0.6288520716766641,-0.09172234685329997,-0.7527755148541366,-0.6518558393723357
-0.5812829659386428,0.07496577786716695,0.628634073942225,-0.0888643815118518,-0.7474099771436116,-0.6583930799793556
-0.5813097650112212,0.07472231946659243,0.6284069356269463,-0.08816392613589576,-0.7464893324406339,-0.659530741270368
-0.5813350171512324,0.07448736131287766,0.6281852072134623,-0.0901000394436174,-0.7512039938897557,-0.6538918430874775
-0.5813588171856551,0.07427389232558822,0.6279894349889434,-0.09459634431499138,-0.7612621889923502,-0.6415071404534909
-0.5813811073759971,0.07409100620078231,0.6278333767005404,-0.10120521071553122,-0.7755033453983031,-0.6231790004485588
-0.5814008081996893,0.07394674983791648,0.6277227069064029,-0.11084132748311708,-0.7953230732903421,-0.5959659463541398
-0.5814174851026783,0.07384170977583467,0.6276561893330912,-0.12485888008923283,-0.8227358803003593,-0.5545411899302483
-0.5814304092232748,0.07377330614030055,0.6276253842157222,-0.14316178634800383,-0.8555493024857521,-0.49753401285318316
-0.6346645898393273,0.1648756205538775,0.34524829333165413,0.050547097673195915,0.01788020756542073,0.9985616100643133
-0.6346636817866568,0.1648772434541299,0.34526443383442756,0.04835887254250487,0.012003414533174977,0.9987578973334641
-0.6346620511910516,0.16488023697050472,0.3453035081115684,0.04930063300307118,-0.005802993932205041,0.9987671264348458
-0.6346588825031897,0.16488308635941204,0.345375387421838,0.0507813791031996,-0.025045603011131425,0.9983956977602548
-0.6346536203195441,0.1648825803093614,0.34548858204237687,0.052646382483374464,-0.03670117954142836,0.9979385661611049
-0.6346456240473692,0.16487857762275673,0.34564814904980334,0.05435412243578461,-0.04536597825381772,0.9974906302273269
-0.6346346641593731,0.16487084431574212,0.34585303650293536,0.055857097231638855,-0.053772649246477726,0.996989712525596
-0.6346210177450109,0.1648566185545447,0.3460982527644635,0.05717204915729875,-0.062463369078833215,0.996408392336434
-0.6346046944068198,0.16483439864756314,0.3463812449547632,0.05842179843344958,-0.07083365259645905,0.9957758217227639
-0.6345861312759308,0.1648079824605762,0.3466912224665066,0.059970395458327656,-0.07332362565245373,0.9955034894914988
-0.6345653896733285,0.16477960139519,0.34702652916779203,0.061681361655314335,-0.07023468712862428,0.9956216642622289
-0.6345437740183042,0.1647514596950652,0.34738159560476156,0.06290182226666885,-0.0620727895444526,0.9960875109917314
-0.6345206903845212,0.16472507304114753,0.34775189326445755,0.0645777609502273,-0.04924319750589699,0.9966969550921938
-0.6344960106603149,0.16470362494661694,0.34813482172713156,0.06638530240435178,-0.03453583609982539,0.9971962031864986
-0.634470072591942,0.1646902167063687,0.34852193082564614,0.06825514969969584,-0.018739421237655412,0.9974918890051938
-0.6344429140018393,0.16468778103443793,0.34890918476297383,0.07003912414145569,-0.0028301388192849097,0.9975402304688074
-0.6344155984498459,0.16469405377056323,0.3492857644276821,0.07175942167081321,0.013519178471808984,0.9973303450787597
-0.6343890466681471,0.16470574358716414,0.34964518330339783,0.0735449032015943,0.029999832283284854,0.9968405876949649
-0.6343640467527056,0.16472058188275632,0.34998033561035985,0.07592179088326792,0.04960097349600172,0.99587932255737
-0.6343415398323743,0.1647345362033966,0.35028082339573885,0.07961482287895627,0.07883897715711957,0.9937031224962372
-0.6343220059501621,0.16474835916665606,0.35054383793663707,0.08756889461081935,0.1338570473149659,0.9871240953298415
-0.6343076120336215,0.1647658338733764,0.3507616905128461,0.11076587227674758,0.23970593532512371,0.964506084018488
-0.6342991630575369,0.16479639561694912,0.35093553623510126,0.18059053328989116,0.4464730604274501,0.8763839715550594
-0.6342928955712184,0.16485152202446338,0.35105889200106527,0.32815767609253016,0.7522530641119716,0.5713386624023445
-0.6342797601164724,0.1649450002580975,0.3511236594319336,0.46480096035899804,0.8839011951490597,0.051756588599106104
-0.6342426606564929,0.16509001427760855,0.351119216590348,0.5272349677414115,0.7987687808050278,-0.2898132564289671
-0.6341556330201499,0.16528722308931576,0.3510330172347945,0.5661013951125549,0.6946790583667578,-0.44379073482700576
-0.6339912419940038,0.16553976075715976,0.3508605184408758,0.6020859721479842,0.6120401038308647,-0.5127371582451591
-0.6337230499267427,0.16584297485400018,0.3505946400299122,0.6363699962229981,0.5470217332137752,-0.5438754005274912
-0.6333311727195995,0.16618565976327376,0.3502330381701863,0.6666158411519199,0.49727635267741865,-0.5552833055235515
-0.6328090368007268,0.16655895104626733,0.34978434956108845,0.691936400671184,0.46006777427049395,-0.5563826565449362
-0.6321632004847706,0.1669599735568254,0.3492614551376334,0.7129240821935665,0.43275770060075935,-0.5517789644406574
-0.631404539403647,0.16738359478747886,0.34867851188675925,0.7297325595033324,0.4145524781623238,-0.5437247782198191
-0.6305462251370583,0.16783125874475133,0.3480469301968704,0.7420652741167578,0.4052739014137079,-0.5339402530086426
-0.629600785992499,0.16831237365825868,0.3473726688038434,0.7500228047128022,0.4050684368895828,-0.5228626529468057
-0.6285740202950949,0.1688345077739336,0.34665830851942636,0.7545489086816456,0.41291543834357,-0.5100556687116368
-0.6274685724360737,0.1694135315808742,0.3459101726275596,0.7573784406842464,0.42635384804651555,-0.49457081782352275
-0.6262867742892498,0.17007368266522382,0.3451364890833136,0.7598034038758077,0.44115837217517445,-0.477575206766941
-0.625027416015246,0.17081945847646546,0.344337830126222,0.7635085606623881,0.45423596432531477,-0.4590472377748282
-0.6236892306000008,0.17164256823498242,0.3435261299618169,0.7687002954215457,0.46525399375410087,-0.4389061142370739
-0.6222713944318049,0.17253095752715192,0.3427105602195256,0.7751383130391598,0.4748153894467209,-0.41678644604085224
-0.6207739261636331,0.17348674207039974,0.34190477418350806,0.7836526212653009,0.4808203129671106,-0.3933197119675451
-0.619191566720906,0.17449502633776642,0.34111647821355845,0.7949658536524635,0.4815812323470657,-0.36892927259529246
-0.6099517996043822,0.17977061047895443,0.33770531416965066,0.8626378029985845,0.4506588456954431,-0.2297011659400663
-0.6078444592215686,0.1808558990730238,0.337186736184564,0.8734001481232323,0.44255657948332877,-0.20326301979044806
-0.6056474642852231,0.1819465282747218,0.3367250263480959,0.8832654115695024,0.4334026960861452,-0.17889750068186505
-0.6033642877427955,0.18305149608877147,0.3363144497087185,0.8919696618043756,0.4236205522896304,-0.1579105762715602
-0.6009991115719698,0.18417085915813536,0.33595066553140646,0.8991895681361098,0.4143596872261681,-0.14058509934210164
-0.5985434558284357,0.18529043431556919,0.3356114930608874,0.9055040569469189,0.40476442337528845,-0.12738981286720358
-0.5960067141180841,0.18640283776969374,0.33529222341832604,0.9111273338937825,0.39482983722147347,-0.11813712825048826
-0.5933992989050874,0.18750226732020042,0.33498839845396733,0.9150634845287693,0.38738288444931446,-0.11221996309835536
-0.5907224956168884,0.18859807206325657,0.3346864476611337,0.9171118727231244,0.38341478194285167,-0.10908216122721005
-0.5879917509786073,0.18969528846642317,0.3343836994011786,0.9178538751427576,0.3817320532357267,-0.10874237176859533
-0.5852228774625617,0.19078966127524843,0.33407432432266054,0.9163110288643713,0.38502884318291075,-0.11012215171684024
-0.5824233805015168,0.19191831739925067,0.3337472857314356,0.9122975055444063,0.3937626467211025,-0.11253550295193994
-0.5796053277197843,0.19310775185430315,0.3334017887792097,0.9060432685570456,0.40680251427967384,-0.11660750352443365
-0.5767768542345088,0.1943621322860311,0.3330386236337048,0.8971130183018766,0.4248256477943431,-0.12129056587143805
-0.57394053616361,0.19570468561109658,0.33265390932394856,0.8860809252534165,0.44572895437408094,-0.12722536356653805
-0.571103432353632,0.19715028271119345,0.3322445878377895,0.8728860123706599,0.46904672829545213,-0.13440675609127883
-0.5682668816615686,0.1987063601723122,0.33180439752751095,0.8581510953970017,0.49354486432730005,-0.1413865777401555
-0.5654287775726283,0.20037599474923712,0.33132104337054646,0.8426578370158095,0.517841246521609,-0.14754054736506686
-0.5625956044108024,0.20217381441852555,0.33079910061884416,0.8264477567635496,0.5421485144028388,-0.15185220996512155
-0.5597674347244659,0.20410201686131166,0.33023852979697577,0.8112910659783485,0.5641714637032129,-0.15335372772348693
-0.5569420921200237,0.20613957181046388,0.3296483648740632,0.7976043147669598,0.5838699327260249,-0.15140428898692326
-0.5541191894857851,0.20830678437081704,0.3290573313478345,0.7859851313210956,0.6009496141465284,-0.14521341053531778
-0.5512902022958514,0.21056240426159162,0.328489408903157,0.7771651672386725,0.6148474505617291,-0.1340780197072902
-0.548443917129064,0.21289466671906604,0.32796685886427385,0.7711079637856961,0.6255852181954188,-0.11847211892115171
-0.5455895569006535,0.21528850912129072,0.3275222476534289,0.7674124302441687,0.6335045661977059,-0.09874272891405864
-0.5427155121004322,0.21772251411010052,0.3271638523159056,0.7663768005228215,0.6378610038491849,-0.07615733312632125
-0.5398065491377575,0.22018784365633498,0.32690141702128034,0.7671725350375738,0.6393234223748778,-0.05207555171955771
-0.5368610656623185,0.22267140502878008,0.3267435497728987,0.7695407879572552,0.6380030933463073,-0.027550472784865446
-0.5338675792902691,0.22517631446816272,0.326696037636854,0.7728808588187434,0.6345347652392467,-0.004561773161358489
-0.5308122036354135,0.22769340662348847,0.32674440265795607,0.7768657818902076,0.629457951611139,0.01619395200762732
-0.5276857818485376,0.23021430430648593,0.3268831459985456,0.7804537863590176,0.6242831725779416,0.03409410203968866
-0.5244824892811295,0.2327572130290961,0.32709568694467006,0.7838368739706028,0.6190812241675797,0.04835486415206356
-0.5211951076826475,0.23531923033127194,0.327361783989109,0.7875241674454949,0.6134887947811252,0.058627505211140886
-0.5178263444784654,0.2379154172416951,0.3276671549685466,0.7905657453008647,0.6088504898128378,0.0656268497762594
-0.5143817116129266,0.24054874552159608,0.3279951401551201,0.7936163408459941,0.6044687540866024,0.0692143689937689
-0.5108621812659674,0.24322169678430697,0.32833173819324063,0.7966821055207008,0.6003548852043985,0.06979709560086553
-0.5072685745391422,0.24592111880465545,0.32865869025377625,0.7997664450057315,0.5963296442102982,0.06902600146983501
-0.5036161385690634,0.24864078955708144,0.32897518277965465,0.8022286487183122,0.5931098068690316,0.06819055778750345
-0.4999160880534783,0.2513684180352504,0.32928114817846094,0.8051026940786074,0.5893088696506547,0.06726595081046711
-0.4961750753809231,0.2540861610546322,0.32957292816996053,0.8080995046024623,0.5852125417099947,0.06709300773242229
-0.4924119832853168,0.25677836144527333,0.32986094916122033,0.8104556512636868,0.5818001163109945,0.06833931515070049
-0.48864410966368005,0.25946006047107073,0.33015377003878515,0.81234600952472,0.5787580269073331,0.07164570538137097
-0.48487746865689746,0.262126019275232,0.3304596251322296,0.8136363192291426,0.5761566239594937,0.07771412161796118
-0.4811234133365175,0.2647665688328158,0.33079720308652283,0.8144324665423427,0.5737047932233992,0.08696302475335414
-0.47736784883841155,0.26740904046905367,0.33119175354044167,0.8144425012938263,0.5717168178827916,0.09911252310495622
-0.47370764199427884,0.2699787422192983,0.3316272423950625,0.8144257104749922,0.5687534320027983,0.11502302248829441
-0.4700699149175452,0.27252139197975517,0.33213464009074906,0.8143985905609165,0.5644338924214386,0.13479360807685437
-0.466473787761795,0.27502273476079897,0.33273924876819616,0.813797917976017,0.5592737573418038,0.15794243586408613
-0.46292831927819694,0.2774693593838516,0.33345466685740677,0.8129687434036105,0.5521630422653913,0.18492646377677294
-0.4594389815438556,0.27984121573807363,0.3342839605513334,0.8118805400332914,0.5426641727897628,0.21532669199533438
-0.45602195212778895,0.2821243024625939,0.33524678216490716,0.810364880514578,0.5306754543215797,0.24837939248089558
-0.4526836520126192,0.2843045833630948,0.33634046225690567,0.8080514702143994,0.5166476263898864,0.28306898740420844
-0.4494238909587806,0.2863763768254192,0.3375581513328321,0.8052962279795441,0.4996389407205933,0.31915343350420294
-0.4462430543440766,0.28831935047606694,0.3389058455906418,0.8014642350916944,0.4804355092397286,0.35614154676258697
-0.4432090642591466,0.29008111326360897,0.34034066138078234,0.7940784637871403,0.46108871076557684,0.3960260018660311
-0.44023759966431864,0.2917275656351992,0.34187312935801256,0.7818365214685817,0.4437141602550251,0.4380061616999078
-0.4373747019533049,0.29324974119646213,0.3435065827480846,0.7624259372893506,0.42896082990994633,0.4844577345356613
-0.4346606931328747,0.2946825606040059,0.34525651659013284,0.7348746958323195,0.41628016060388384,0.53541573502556
-0.43213519186680166,0.2960574058179963,0.34715115148136305,0.6997380218321885,0.4046510306472014,0.5887480311631906
-0.42982512545460166,0.29738879684895636,0.3492050942354754,0.6575348831684723,0.39210087219236456,0.6433543218496403
-0.42774684847585026,0.2986718207703607,0.3514347766759428,0.6099555860528051,0.3776397228250567,0.6966652157152625
-0.42589869027106664,0.29989816851367435,0.35382143668550464,0.5602329448606462,0.3613086977168266,0.7453825007651701
-0.424260144625901,0.3010638564453847,0.3563523600637098,0.5120315754620307,0.3417096098792277,0.7880724638293466
-0.4227858035008604,0.30213905967337706,0.3589978134413457,0.469966996175455,0.31800064543478246,0.8234115690278353
-0.42141968939345714,0.30311794318082036,0.3617167030946637,0.4362723733379024,0.29128256200059605,0.8513641320472004
-0.42013221942571627,0.30399804204130343,0.36449229580441633,0.4096571414513727,0.26226711479537906,0.8737259221030343
-0.4189069023759711,0.30478158633417685,0.36730751566883213,0.38846153527092037,0.23117972653238886,0.8919941533751045
-0.417736112935766,0.3054791771930151,0.37016265595948133,0.3705022216971553,0.19941743345208882,0.9071718640659298
-0.4166103352036865,0.30607915071425346,0.3730574136150463,0.3549841020610293,0.16631184785851041,0.9199601385635208
-0.41551900401978226,0.3065733906506265,0.37597933655259963,0.34082952348417334,0.1307379962275587,0.9309902320991098
-0.41446564854069445,0.30694380286102685,0.3789350237990108,0.32658457495437904,0.09233075187330247,0.9406474087884249
-0.4134541855025022,0.3071863101352405,0.38191295118713586,0.3115588550519915,0.051571429920089784,0.9488263631743635
-0.4124916682916378,0.30729765897678274,0.3849122174221416,0.2951350102361197,0.008466230914999854,0.9554180491633071
-0.4115789396137909,0.30726727378802016,0.3879343185262288,0.2780360408446053,-0.03621866912529564,0.9598875809167704
-0.4107180445081847,0.3070953243073501,0.3909772728546618,0.2594429348605103,-0.08245451747909256,0.9622321009497943
-0.4099166741034991,0.3067752425771598,0.3940326047870077,0.23949682840292105,-0.12913272976100268,0.9622712753113924
-0.4091824490710527,0.30629584796190845,0.39710208443094486,0.21808162059090294,-0.17598391049815393,0.9599323257429262
-0.40851579358113044,0.30565558810433485,0.4001665624804669,0.19544188755973455,-0.2222015365072832,0.955211466514557
-0.40792089635991124,0.3048498491800845,0.40322826144017465,0.17227580191462652,-0.2655896378406027,0.9485690235013844
-0.40739780620982524,0.3038880520442231,0.4062826781145304,0.1491390163324551,-0.3044265733954379,0.9407879756980845
-0.40694740645734223,0.30278846058709646,0.40933031702485695,0.12634719522068028,-0.3375762988315428,0.9327800537785229
-0.40657421601716665,0.30156113229898174,0.4123876996414979,0.10463692375650299,-0.36367168108830245,0.9256316883951109
-0.40627100739096705,0.30024011415619417,0.4154518019014569,0.08428018537711626,-0.38205487538430677,0.9202884996281767
-0.40603272661344736,0.29885105256045286,0.41854484697346883,0.06551878525551015,-0.3930895971420236,0.9171629393937393
-0.4058513377478872,0.29742429317706465,0.4216892695635894,0.04878787002264827,-0.3979235697157503,0.9161203940549122
-0.40571420718833323,0.295988765004943,0.4248873400540351,0.03324461518303487,-0.3978143588182384,0.9168634202973558
-0.40561930499023086,0.29454123728672554,0.42815972105797684,0.018003214151808642,-0.39372131917282677,0.9190535387609434
-0.4055674744298767,0.2930968349669383,0.4315179591519679,0.0028095758181568707,-0.3870164778180371,0.9220685181596011
-0.40556741917779526,0.2916631738487787,0.43496442490856263,-0.012736240283409918,-0.3794666396160636,0.9251177533708539
-0.40563052380399417,0.290226699052195,0.4385176665024935,-0.02853489604168362,-0.3718845372414976,0.9278403152852152
-0.40576389025801607,0.2887894470082749,0.4421716096991156,-0.044350921740716524,-0.3649830067288859,0.9299572036066449
-0.40597322924939,0.28734633168105383,0.4459227722256273,-0.059940580204472536,-0.3599301465743959,0.931051779672691
-0.40626048241009605,0.28589504703106683,0.4497746926059921,-0.0745060752841451,-0.35748068447601955,0.930943824820977
-0.40662405333973894,0.28444283968666106,0.4537181407843841,-0.08738176569161957,-0.35911169722610736,0.9291949289250344
-0.40705162243262316,0.28296087305479267,0.45773477670438867,-0.09810080278378076,-0.3660721570425312,0.9254012147881622
-0.40752369061594884,0.28140923137636614,0.46179793445746614,-0.1064654410477323,-0.3773944516244399,0.91991224458945
-0.4080296972867743,0.27975759496712016,0.46588733406134325,-0.11317950340479639,-0.39216221218951286,0.9129070047598886
-0.4085630965059023,0.277985572111095,0.46998709835710145,-0.11871695146407449,-0.40880847779958446,0.9048656883285293
-0.4091154091118333,0.27608466898500406,0.4740707968657348,-0.12349055668459798,-0.4251938183788701,0.8966383324519003
-0.4096859158361034,0.274060689272388,0.4781279940418286,-0.12811233649338233,-0.43964005490963703,0.8889903550417505
-0.4102730055877774,0.27194132647861247,0.4821620780326575,-0.13301327162125778,-0.4511741027654275,0.8824677889681984
-0.41088206764528784,0.2697693654024688,0.486181880685769,-0.1386566686588931,-0.45792815772178713,0.8781094069658677
-0.41152681266660135,0.26757909063559515,0.4902137706038152,-0.14530364091300524,-0.4592199071505358,0.8763583335679976
-0.4122131151179324,0.26539721103715863,0.49427431499865365,-0.15262223222811447,-0.4562053997397122,0.8766887061426291
-0.4129445389694097,0.26324004589272154,0.49837443708540485,-0.1599282970966376,-0.4501748338020036,0.8785018832074909
-0.413728646263924,0.2611084570778615,0.5025488401992105,-0.16665256988756771,-0.4423738332966329,0.8812107083804146
-0.4145627575707639,0.2589998406688904,0.5068056410163715,-0.17237994303604479,-0.4350642822889885,0.8837444345031301
-0.41543795573262293,0.2569112478139092,0.5111351443784903,-0.17676701810680615,-0.4286034459209587,0.8860318885087082
-0.41634670882286556,0.2548322118451438,0.5155397887451371,-0.1796935367688609,-0.42383989071619005,0.8877330566567778
-0.417275398173111,0.2527605837193846,0.5200030394514776,-0.18091175926136147,-0.4220922131724706,0.8883181293546388
-0.4182052332107908,0.25067607733598374,0.5244956131447461,-0.18065137224196376,-0.4226193267177948,0.888120479660104
-0.41912600032653824,0.2485743538988428,0.5289898824271514,-0.17938559837418597,-0.42547640438924733,0.8870121963107007
-0.4200326534995313,0.2464446408639741,0.5334658005190869,-0.1772511649744193,-0.43099341043177747,0.884774945779771
-0.42091501484431804,0.24427844406885124,0.5378951451588996,-0.1746011286872327,-0.43765020592634535,0.8820298992175786
-0.4217755758983199,0.2420868166262607,0.5422666190918529,-0.17167871158119205,-0.44464971697472677,0.8790978609825628
-0.4226162551203362,0.2398671922422314,0.5465886726891215,-0.1686285916598491,-0.4516048247364317,0.8761378204081779
-0.42342831955565063,0.23764223983563443,0.5508393130840278,-0.16526951615778698,-0.4590212689727347,0.872917786311879
-0.42421231566651335,0.23541626874340424,0.5550112482488395,-0.16204909557648842,-0.465544163373275,0.8700624819930575
-0.42497042679742697,0.2332006154886643,0.5591087474683785,-0.15876925388266422,-0.4718483076727818,0.8672666824961477
-0.42569458217017603,0.23101135313040327,0.5631113793440957,-0.1552919533643326,-0.47859737235998634,0.8641926662442851
-0.42638249691329777,0.22884226569704846,0.5669961176444318,-0.15187130090566056,-0.48537445521567907,0.8610149511973093
-0.42703636757755203,0.2266983894148027,0.5707658099854078,-0.1486058832242952,-0.4919843281553239,0.857827320805698
-0.4276581478179194,0.22458011281930582,0.5744151014205195,-0.1455156670640005,-0.49808912990241355,0.854828877209922
-0.42825009533018393,0.2224806137377287,0.5779480340321453,-0.1426674635241516,-0.5044359488904139,0.8515810990848802
-0.4288165378901218,0.2204139874906385,0.5813751054894374,-0.14027954611652363,-0.509479860932175,0.8489710950591154
-0.42935794239340275,0.21837755629676164,0.5847108747045215,-0.13863705666673232,-0.5131598499976725,0.8470222753087143
-0.42987552554650704,0.21638852889973675,0.5879517122245121,-0.13792332409145974,-0.5159019926841607,0.8454716379726018
-0.4303782070878919,0.21444559271065583,0.5911070939387234,-0.13841750562289723,-0.5182138735176683,0.8439756959954173
-0.43086814199303275,0.2125688275344481,0.5941787411002141,-0.14052159002328224,-0.5203242929543987,0.8423279129287083
-0.43134988946923974,0.2107513801542668,0.5971573864859694,-0.14446107761317892,-0.5244709756443465,0.8390835433742616
-0.43182888008712983,0.20898866621263887,0.6000239658670956,-0.1509059590357855,-0.5318363144639023,0.8332931813863252
-0.4323123577468914,0.2072661903445915,0.6027741567936002,-0.16074810181582241,-0.5430071443930632,0.8241985737070291
-0.432814521208168,0.20555980484037834,0.6054046322582464,-0.17447593557602112,-0.5584450612338195,0.810985364534051
-0.4333490515463642,0.2038558087921006,0.6079057529845033,-0.19191576446376968,-0.5788336465212193,0.7925401876278798
-0.43392657586918104,0.20212814279545474,0.610273396840918,-0.2129370392534385,-0.6052857817111646,0.7669986569559846
-0.43455811009784545,0.20035082866485482,0.6125039456950659,-0.23750197116940555,-0.6360534548599653,0.7341858186122562
-0.4352605493412075,0.1985045118401818,0.6145877323942551,-0.2649186285632384,-0.6698387722549756,0.6936383347423352
-0.43604091448685045,0.19657237410422695,0.6165174884799337,-0.29411462655510046,-0.7041435096945965,0.6462805151026366
-0.4369074432621672,0.19453958661154008,0.6182877609877627,-0.32344310029565715,-0.7364382861480886,0.5941743949097769
-0.437866247925148,0.19239451447113015,0.6198938948734698,-0.35194503636754254,-0.7644974633168309,0.5400725136112557
-0.4389179947592588,0.19013644818288306,0.6213428785775391,-0.37871512030016546,-0.7873351489198637,0.48649585911019566
-0.4400624614771233,0.18777252714238146,0.6226431720261693,-0.4033118814763358,-0.8042696912398157,0.4364513604206425
-0.44130116011774745,0.18532182588818424,0.6238128956548455,-0.42612981701970504,-0.8149390586835092,0.3927947424276305
-0.44262972878274526,0.1828106778314088,0.6248724777158744,-0.44726995913563483,-0.8196083745971433,0.35803867939796136
-0.44403892504002423,0.18026766171298148,0.6258458569982877,-0.466075209081939,-0.8195109547263437,0.33343019443767147
-0.4455172641834087,0.17772481244737387,0.6267639119339843,-0.48244106292270955,-0.8161414657014154,0.31806246048339565
-0.44705151997652587,0.17521132158689645,0.6276585851855104,-0.49583379939279804,-0.8110123146511985,0.3104961656185275
-0.4486217568910857,0.1727430716558266,0.6285537833577315,-0.5052494247815286,-0.8058829940545398,0.3086674888154322
-0.4502159648790072,0.17032123180531133,0.6294671362806751,-0.5095229008486996,-0.8023196887510148,0.31091724068182697
-0.451813543619627,0.1679241237518445,0.6304178206204285,-0.5081043873354948,-0.8015656630382567,0.31515459604527685
-0.45339831367253036,0.16553414992699503,0.631408585125325,-0.5012257525187086,-0.8046081195263857,0.3183999356222728
-0.45494848727006515,0.16311356491657458,0.6324266560615377,-0.4896397781098276,-0.8117816103875649,0.3182192714609383
-0.4564514722493209,0.16064192150783912,0.6334441976782494,-0.47473052143748984,-0.8223363253570142,0.3136780196539314
-0.4578969594055462,0.15810139862439532,0.6344315723176417,-0.4574251209329551,-0.8352370380748816,0.30519067640963493
-0.4592754861596403,0.155498734913922,0.6353698480424361,-0.43963599832308264,-0.8486461706497107,0.2941425947054399
-0.46058111570800847,0.15285080249515273,0.6362500759551455,-0.4225480898292046,-0.8609838864886658,0.2831251648804163
-0.4618147561458761,0.15019194225439197,0.6370723107549867,-0.4069158288921698,-0.8717764980763953,0.272809907442261
-0.46297216609648223,0.14756930903685722,0.6378367988162178,-0.39392244366293805,-0.8806071197417501,0.2633556702232904
-0.4640547872074794,0.14500856609818003,0.6385515753944551,-0.3844619053028764,-0.8870269448372493,0.2556799610911609
-0.4650694121687125,0.14254330941298887,0.6392290747854514,-0.3788742447893137,-0.8909032180256877,0.2504910432466619
-0.4660204394531056,0.14020269107516628,0.6398708486244058,-0.37730572255398304,-0.8924226496679438,0.24743121486114747
-0.4669109018296685,0.13800896399905294,0.6404707159492128,-0.38036690411026947,-0.8914787894477062,0.24614342612066908
-0.4677555781096174,0.13598524380046229,0.6410232035799329,-0.38784433568217497,-0.8884023430496649,0.2455973292670706
-0.4685614627090573,0.13413556288055112,0.641529188122572,-0.3987467181476365,-0.8835095300696526,0.24578845587738898
-0.46933567718313784,0.1324418221867566,0.6419914786555135,-0.41293846512889193,-0.8768420014708587,0.24623145305499386
-0.4700912212616876,0.13089388823530607,0.6424196413934665,-0.4298252780690328,-0.8682214914129543,0.24787430722352782
-0.47083141305510023,0.12948037486818292,0.6428273089992301,-0.4467498738407027,-0.8586562464286653,0.2512449018236018
-0.4715564595483817,0.12817041184732927,0.643221961081318,-0.4609352912396115,-0.8501452898570865,0.2545420268318471
-0.4722767476846657,0.1269207246128188,0.6436119056305872,-0.47064008171982114,-0.8439069699698293,0.25752463865638514
-0.4729991412839455,0.1256936678326629,0.644005021252488,-0.47560534703213825,-0.8407324090945477,0.25878286298075776
-0.4737190461229094,0.12446304487708036,0.6444011108741692,-0.47676814245994187,-0.840793919962946,0.2564326860769509
-0.47443834369344673,0.12320994693891493,0.6447953604629667,-0.476744897942201,-0.8423367861195862,0.2513623699677554
-0.4751605710045815,0.12193314747379731,0.6451801080211775,-0.47663098412805943,-0.8443405361797468,0.24476920544221925
-0.4758836079314416,0.1206236378546152,0.6455494719200966,-0.4769448923750786,-0.8458118955189916,0.2390100563488809
-0.47660574815010986,0.11928776940632349,0.6459045805791938,-0.4807412393786935,-0.844609498399555,0.23563245950821304
-0.47732522203273003,0.11795317903523077,0.6462463586476759,-0.49257808314722024,-0.8377274786032645,0.235753056387457
-0.478038233210793,0.11666944018282494,0.6465789317706655,-0.5150014098367501,-0.8228550177368467,0.2401732034417107
-0.47875225717265,0.11546527542257168,0.6469037321417613,-0.5514536733336782,-0.79579911185124,0.2502051553097389
-0.47947698934394906,0.11437384791809202,0.6472278341905497,-0.6053444053155564,-0.7496587394117564,0.26752556023066576
-0.48021361689121583,0.11343943375848413,0.6475582549471871,-0.678524418283993,-0.6739927737323319,0.29212729203031773
-0.48096580109694803,0.11271371115519307,0.647892381229203,-0.7662585159691686,-0.5573360996506468,0.319725442733186
-0.4817470938372908,0.11223206641125183,0.6482229594151414,-0.8520598654946333,-0.39652502030886627,0.34170439546824793
-0.4825677217385845,0.11198762061689807,0.6485498193772583,-0.9140013343454099,-0.20861390473111693,0.3479681013651206
-0.4834374141211825,0.11196197120012383,0.648873830872598,-0.9403111854557389,-0.03417517746512221,0.3385955282517042
-0.48436175244139995,0.11212944895367759,0.649196768379068,-0.9424528838231757,0.08937837074282987,0.32217086866558386
-0.4853440553468761,0.11242619189541363,0.6495237397087557,-0.9391442703974815,0.15594718901651516,0.3060857945371352
-0.48638614193613877,0.11276592452086968,0.6498597424874311,-0.9401996861761817,0.17749257892518838,0.29072484334967863
-0.4874896841236761,0.11309258294143257,0.6501973529177655,-0.948200124783448,0.15578586501970484,0.2768524654409204
-0.4886475631153397,0.11334443162483326,0.6505302176761415,-0.9589423932788329,0.10204809909941823,0.2646047464480929
-0.4898491080272563,0.11347690610179866,0.6508568186512201,-0.9670552935693105,0.032472588152536674,0.2524868119293567
-0.4910829060911731,0.11348858040730156,0.6511693136603943,-0.9699274065645014,-0.04473392242378098,0.2392482020405661
-0.49233808277771873,0.11336439743445957,0.6514676374115239,-0.9665410656851627,-0.12393278370722,0.22458636082088612
-0.4935970119545943,0.1131240796762034,0.6517547841453004,-0.95738779435242,-0.20120264758388667,0.20718616225569383
-0.4948527947225345,0.11280579129179201,0.6520166665228755,-0.9428668333607988,-0.2754481079475532,0.18743125240016092
-0.4960869545686548,0.11240218072700434,0.6522541027866054,-0.9238766697796617,-0.3448334718696932,0.16595715023805194
-0.4972907767946158,0.1119102423501835,0.6524677215263354,-0.8980952942123549,-0.41592776703962936,0.14292982585538727
-0.4984507929158956,0.11132509237991314,0.6526526411693322,-0.8679837877581392,-0.48242945580508245,0.11775382949460925
-0.49956200518481636,0.11065023457564345,0.6528049099443414,-0.8375063860838794,-0.5398259800781604,0.08468154758489936
-0.5006229762333623,0.10988091612225334,0.6529131226591584,-0.8043975613483969,-0.5924130412879791,0.04462456508112218
-0.5016330847632445,0.10902346555444195,0.6529632291184543,-0.77421620393748,-0.6329210405833161,-0.0004753394266010477
-0.5025968196291627,0.10811266987709921,0.6529487148692049,-0.7492357708558431,-0.6604080472469355,-0.050069659490950214
-0.5035203061351816,0.10717870458327494,0.6528632243705818,-0.7321830350610943,-0.6734301708747764,-0.10197944951946813
-0.50441114765286,0.10626470803319318,0.6526998094478755,-0.7274991032616823,-0.6677487207456665,-0.157660079588886
-0.5052832147835843,0.10540137764033561,0.6524594797825811,-0.7304386806644477,-0.6475088341506857,-0.2172363769859943
-0.5061409792402836,0.10460953990738979,0.6521476810340735,-0.7394987872405174,-0.6136485629127143,-0.276725468479077
-0.5069969118877811,0.10390473154930925,0.651767676801411,-0.7538487095855062,-0.5656957038262505,-0.334216237978932
-0.5078539310220466,0.10328442726802207,0.6513355800599295,-0.7677276929338709,-0.5138603585123117,-0.3828076820702984
-0.5087257993542298,0.10274990102170102,0.6508545895503696,-0.7824969996026605,-0.45988316218118436,-0.41976889207642376
-0.5096202409488924,0.10228186676553538,0.6503299069535688,-0.7956354746661313,-0.40768035158283744,-0.4480635249449502
-0.510548068495292,0.1018675833602795,0.649763889482485,-0.8068437493282193,-0.36561857426917266,-0.46403256601165294
-0.5115178301570052,0.10148831066479258,0.6491611334888856,-0.8195249748982514,-0.33331281363120463,-0.4661345125468293
-0.512535630829827,0.10112464043047784,0.6485405700908858,-0.8313993738284148,-0.3160740596022688,-0.45702545885788587
-0.5136063554374781,0.10075890475967494,0.6479238234601442,-0.8448455901799622,-0.3094655876543212,-0.4364252270564077
-0.5147291641684846,0.10038004604990637,0.6473310236619451,-0.859031109714603,-0.30983966909898436,-0.40751065261552355
-0.5158995180644267,0.09998126723300563,0.6467765225593709,-0.8713836597018889,-0.3193143418849991,-0.37246324472502307
-0.5171129411171573,0.09955026647373337,0.6462728544737812,-0.88273956754225,-0.3320438468943384,-0.332442084632693
-0.5183626523752621,0.09909483081425996,0.6458300939576529,-0.8904170009254582,-0.3499797758144978,-0.290984056236328
-0.5196439435169806,0.0985868198584139,0.645456806960053,-0.8944128377298942,-0.37011726742118867,-0.25107545491471367
-0.520952468187191,0.09804298104274732,0.6451479155021741,-0.8947938064990013,-0.39067481687325406,-0.2161416926742205
-0.522284011193068,0.09744556546007457,0.6448791259702886,-0.892435122482666,-0.4090088603683688,-0.19045026726029388
-0.5236379026482334,0.09679816419388154,0.6446401694175502,-0.8894110177167331,-0.4233656182504056,-0.17236471462435987
-0.525016524589947,0.09610720446586857,0.6444175296805859,-0.8873703709481877,-0.431646724219129,-0.16203373177882094
-0.5264256131577394,0.09536880691745844,0.6441933522173132,-0.8871163293903794,-0.43295725697209236,-0.15991445139242869
-0.527872010810079,0.09461037162894287,0.643954918190197,-0.8905335156723053,-0.42447893384589125,-0.16360834998672752
-0.5293706400494733,0.09385106773592905,0.6436823186341617,-0.8967696227150427,-0.40789217928986593,-0.17154653552224253
-0.5309274285858095,0.09310392834461761,0.6433742235259797,-0.906463324662456,-0.38177646389561404,-0.1804742991598748
-0.5325568180100195,0.0923968761847333,0.6430303702308222,-0.9194305850751056,-0.34598455406802026,-0.18692802779359272
-0.5342648818748232,0.0917424902408463,0.6426608747691532,-0.9335944271333045,-0.30356378185172633,-0.1903955776101806
-0.5360649301527431,0.09118205613352201,0.6422690701558396,-0.9474353570438879,-0.25731300105797195,-0.19014800474803986
-0.5379548453373129,0.0907037411828419,0.6418614535804127,-0.9596988839784796,-0.21234906285586308,-0.18408130702137432
