-0.5651530300706772,0.1478855481258592,0.6478188894728705,0.8569859560818165,0.4952113090570715,0.14262128333638155
-0.5596047875246788,0.1510782918273267,0.6487245952745841,0.8600677204873786,0.4917965511271993,0.13571907925946364
-0.5540301207647315,0.15424919972294737,0.6495857685149112,0.8633065201141129,0.4881777801144964,0.12800120050586591
-0.5484359957246628,0.1573945762763566,0.6503976793529668,0.8665747708242935,0.484616180414482,0.11914413225711719
-0.5428271962533802,0.16051219046553217,0.6511508733173186,0.8698778578828763,0.4811468078500722,0.1086750277698808
-0.5372090584972108,0.16360038170011734,0.651831569683564,0.8731576140650016,0.47780575866466024,0.09642322327739407
-0.5315867224159897,0.16666000619563626,0.6524238633021393,0.8763641329546383,0.47457730507840784,0.08223313185803376
-0.5259657055760263,0.1696874342735964,0.6529139378726947,0.8794745269278825,0.47133491389180154,0.06609050939117551
-0.5203520601010779,0.17267997516777794,0.653293504326576,0.8823904812828705,0.46806199827654976,0.048010460430487026
-0.5147509098064204,0.17563606159145861,0.6535505540099142,0.8850566275188615,0.4646482873373875,0.027869968772350706
-0.5091666241562791,0.17854933228009948,0.6536771586003937,0.8871938303791558,0.4613662886542587,0.005315546120311708
-0.5036063190566246,0.18142075048943035,0.6536557811830197,0.8886579480496051,0.45814562078513066,-0.019739339494337708
-0.4980797903723847,0.18425013342818725,0.6534676735559335,0.8890511545662708,0.4553450767941941,-0.04742262754920052
-0.4925967386804526,0.18704204845983644,0.6531003860568513,0.8882318072005063,0.4527974389181547,-0.07758051293000498
-0.4871689713948737,0.1897987068840598,0.6525413092553624,0.8860369012820382,0.450341126632683,-0.1101429944650572
-0.4818086973893491,0.19251569376368316,0.6517840403876323,0.8823020076321603,0.44780141093941184,-0.14497263082710307
-0.4765290223428687,0.19519461520737783,0.6508206679563536,0.8769358481016709,0.4447382024202395,-0.18218520692475876
-0.47134484482570027,0.19782259685299225,0.6496448459623425,0.8696180542856196,0.4408104374149108,-0.22237490399451126
-0.46627309409811746,0.20039215514995834,0.6482419640061046,0.8598974387200683,0.43564055410397917,-0.2660708599276595
-0.461332483242206,0.20289569548004424,0.646596142041544,0.8471643172354425,0.42896428035825807,-0.31353192146849795
-0.4565417890299485,0.20532369851385185,0.6446926174664105,0.8309883851935389,0.42001868188354125,-0.3647500658563987
-0.45192093691512997,0.20766063926047373,0.6425175018792466,0.8106373263887576,0.40843856290692093,-0.4195772460415556
-0.44748860285528996,0.20989417757029774,0.6400535764801706,0.7855250841214034,0.39405376018146054,-0.4771498468017295
-0.44326015326140916,0.21201302882191161,0.6372953052672673,0.7553622689011187,0.37649479592411056,-0.5363576338252456
-0.4392508953356086,0.21400502542023447,0.6342394873562743,0.7197233851383518,0.35580947343883884,-0.5961525538787602
-0.4354786446770143,0.2158602421103841,0.6308801507029108,0.6786650535412859,0.33204999519896616,-0.6551004089375688
-0.43196428622905825,0.21757483090135135,0.6272238186788287,0.6327179733739667,0.3053641712309597,-0.7116324115004665
-0.42872853485930845,0.21913294562231103,0.6232876745849389,0.582796646384169,0.2755122322110577,-0.7644874615488774
-0.4257877681338286,0.22051661427171035,0.6190966247442371,0.5296892185445389,0.24248719727103896,-0.8127910499736769
-0.4231513683691136,0.22171277474179732,0.6146821934760219,0.4742850798458504,0.20660589771867008,-0.8557848246279421
-0.42082175079523715,0.22270743085263375,0.6100772865011205,0.4175433207807926,0.16791695468207823,-0.8930069829523422
-0.4187990271504731,0.2234897261311847,0.6053084244690079,0.36042264713203304,0.12664782704508606,-0.9241514179716956
-0.4170801238224341,0.22405345201723742,0.6003895269855275,0.3043300543785439,0.08298750233296912,-0.9489448310931928
-0.41565653485323534,0.22438813852988368,0.5953370612036534,0.25141173076326406,0.0373330701170332,-0.9671599575614452
-0.4145048431084282,0.2244743266347412,0.5901661113548666,0.20410148227728678,-0.009084799251781614,-0.978907580599297
-0.4135849814193098,0.22429509093596617,0.584884135134259,0.16464709231678218,-0.05356308899135996,-0.9848971167027206
-0.41284490804063956,0.22385405454633475,0.5794892883221633,0.13483494529811438,-0.09275588944038347,-0.9865170462290949
-0.4122243542755374,0.2231765061207308,0.5739644152747915,0.11528753080372889,-0.12383917941416349,-0.9855823876689386
-0.41166064618264464,0.2223144474033714,0.5682873027989498,0.10513248362898628,-0.14511105034465654,-0.983813978328155
-0.41109911395310883,0.22134006014747967,0.5624436183316986,0.10231472212378243,-0.15702345388550568,-0.9822806791170229
-0.410500622364795,0.2203155415851959,0.5564437927253209,0.10424092624612966,-0.1619075588720072,-0.98128475565223
-0.4098455055849482,0.21927892876316493,0.5503230613391427,0.10848909027269597,-0.1622377890648333,-0.9807696044898402
-0.4091370931852212,0.21825056387319103,0.5441312003259458,0.11309301304072886,-0.16004553972560884,-0.980609706058077
-0.40839340029810806,0.21723966373171885,0.5379137787192019,0.1168686467767302,-0.1564711096989557,-0.9807438560756593
-0.4076334989634661,0.21625093486743818,0.5317041908874104,0.11947126061221651,-0.15189699003429247,-0.9811492864525
-0.40686868138612625,0.21529286287525923,0.5255203662234111,0.12098569942557809,-0.14563304012104134,-0.9819131724137358
-0.4061025242560087,0.21438671913207244,0.5193656201548968,0.12150609208097551,-0.1373775743633405,-0.983037980776559
-0.4053360225353108,0.2135482889299902,0.5132447196153024,0.12076321948101885,-0.12726669562705045,-0.9844894275738826
-0.40457603480187754,0.21278843106946546,0.5071657453785131,0.11795231697853999,-0.11566697607075375,-0.9862598042940012
-0.4038405765760421,0.21211711619388182,0.5011440867961934,0.11197821702400229,-0.10294165004872478,-0.9883642524886114
-0.403157276389653,0.21154080589723143,0.4952032679157936,0.10162598115569316,-0.08944246885548943,-0.9907937246062761
-0.4025599276249548,0.21105760223099995,0.48937274420714805,0.08585313965360293,-0.07565239912573166,-0.9934314032272888
-0.40208403660236663,0.21066918254655345,0.483676800959131,0.06373285642972051,-0.06165167754600755,-0.9960608383362293
-0.4017632699216329,0.21037488536385535,0.4781364241338347,0.034406966997398564,-0.0477936912544993,-0.9982644557923064
-0.4016298277381461,0.21016773812521117,0.4727655477763379,-0.002992077393697305,-0.03456720719783962,-0.9993978965654329
-0.40171747019232185,0.21003779449618426,0.4675753589572985,-0.049105648060044804,-0.02253739975993022,-0.9985392836241668
-0.40205990204340053,0.20997286023051678,0.4625734958860882,-0.10374504777964272,-0.012603496121598825,-0.9945240655442745
-0.4026874157989651,0.20995588862590364,0.45776693523404016,-0.16550763542313318,-0.005228708102116832,-0.9861946477385821
-0.4036188837381887,0.20996599244952815,0.45315766656615175,-0.23165445794182826,-0.0013163212672629044,-0.9727972447606948
-0.40485676491195294,0.20998903886023634,0.4487317721719961,-0.2984397611763601,-0.0012278514653211972,-0.9544276826086805
-0.40638731828916325,0.21000244857874265,0.44446749419607573,-0.36229021015991536,-0.005365010613764728,-0.9320499022495515
-0.40818680483747544,0.2099859603269643,0.440334465747631,-0.42094448739496454,-0.013478880148933923,-0.9069862503487699
-0.41023404443895706,0.209920416762316,0.4363070695835726,-0.47382902879128375,-0.024894536415682015,-0.8802649109963189
-0.41251416855152306,0.2097889845988717,0.43236880699222696,-0.5216495234742471,-0.03840809860588999,-0.8522948976854027
-0.41502017555429965,0.20957841731340562,0.42851791929977806,-0.5654053140719245,-0.05206341596733699,-0.8231684101914021
-0.41774683800776335,0.20929391628590477,0.42476218815727157,-0.6059615995182781,-0.0643709441453914,-0.7928851880689164
-0.42068821634423476,0.2089468645233005,0.42110971480948745,-0.6438221649696271,-0.07408997356836432,-0.7615797369353134
-0.4238348333966403,0.20855606430860607,0.41757021171142095,-0.6791630062986013,-0.08062485751027398,-0.7295459157769948
-0.42717769982235676,0.2081432579617236,0.41414966149574906,-0.7119586416543006,-0.08437311283229294,-0.697134183930721
-0.4307084217593496,0.20772501981429803,0.4108511078611592,-0.7421766588483973,-0.08660814771766019,-0.6645847092805743
-0.43442021436413153,0.20730351813566097,0.40767723355445984,-0.7696328610346259,-0.08904259014367555,-0.6322473221423416
-0.4383067685607457,0.2068707545389385,0.40463007183468136,-0.794171750844374,-0.09298164335490301,-0.6005377957795854
-0.4423593305961214,0.20641721048314962,0.4017052680944746,-0.8154707773794035,-0.09981746194968275,-0.5701262014064561
-0.44656554323196007,0.20591591395489056,0.39889577365228485,-0.8333626030520338,-0.11037810745353005,-0.5415934316711339
-0.4509114946005106,0.20534489345653067,0.39619377285646845,-0.8478124507188245,-0.12502991509235914,-0.5153460669667893
-0.45538182236022573,0.20467833888167955,0.393585100882981,-0.8589755868326121,-0.14358876491111908,-0.4914704546733904
-0.4599592301026953,0.20389391871834542,0.3910601687902799,-0.8670385413024979,-0.16579285755158452,-0.469847737337232
-0.4646259255101098,0.20296598670472835,0.3886100641140631,-0.872391731343554,-0.1910826423817202,-0.44991120330996
-0.469365650190915,0.2018754012143438,0.3862338027622823,-0.8754643419795151,-0.21827745909585466,-0.4311810951016198
-0.4741617106777774,0.20061379529166318,0.3839282694575474,-0.876779630684217,-0.24630879288521826,-0.4130247665269898
-0.47900100828822095,0.1991727551025215,0.38169743874820605,-0.876986794866998,-0.2737498447800013,-0.39491161556965493
-0.48387313856192327,0.19756164261065612,0.3795466763282241,-0.876905964729833,-0.29928459687158987,-0.37611787925682383
-0.4887701345257289,0.1957953944348306,0.3774833829792147,-0.8773943352089616,-0.32159545544242824,-0.3560274477930058
-0.49368662820712184,0.19390055938175138,0.37552616347430245,-0.8792664006321006,-0.3397093869815732,-0.33389838142176426
-0.49861893266682134,0.1919117793906281,0.3736955021604238,-0.8829338127655784,-0.35315298338876494,-0.30937170620283455
-0.503565762296578,0.1898698277357966,0.37201809450595186,-0.8883332496411951,-0.36215406504246056,-0.28232688634831665
-0.5085247315537873,0.1878110967846139,0.3705139072647035,-0.8948968824501815,-0.36757304923773043,-0.2530802703788332
-0.5134909781888876,0.18575956058525978,0.3691963846267804,-0.9017406903853952,-0.370646749931526,-0.22245159938392825
-0.5184580053407584,0.18372718155248294,0.36806770308020137,-0.907842669228651,-0.3732190123731213,-0.19112628477273882
-0.5234138198465226,0.18170694827226347,0.36712288004543686,-0.9124669932501257,-0.376632907751692,-0.1598488005196797
-0.5283475649424295,0.1796838829910681,0.36635430042032746,-0.9151547392077358,-0.3818568809962088,-0.1291399463429816
-0.5332514099635832,0.1776423792266101,0.36575590569425337,-0.9157673399934253,-0.38925311841844834,-0.09925819262347825
-0.5381186331268172,0.17557110306333312,0.3653165737008161,-0.9141683568356717,-0.3991475885014761,-0.07055081823639278
-0.5429485000635543,0.1734504538741169,0.36503272466139824,-0.9103386426016019,-0.4115817041557225,-0.043405720712186735
-0.5477378952523878,0.17126723073677946,0.3648920055314206,-0.9042641294508236,-0.4265597483439461,-0.018792692231113513
-0.5524843007052851,0.16900546637494984,0.3648776642909534,-0.895768072721299,-0.44451364209555555,0.0026799037509329516
-0.5571807911340385,0.16663712631324012,0.36496963874388755,-0.8849219925559426,-0.4652839322717131,0.020589547362479678
-0.5618193326680603,0.16414450519631593,0.36514581128955165,-0.8719788792240513,-0.48831668228530256,0.03463599268163483
-0.5663951990714999,0.1615111608714033,0.3653830983586871,-0.8574264633440605,-0.5126368835619328,0.04498094673532094
-0.5709027203301733,0.15872795165694606,0.36566180425735734,-0.8418215709113334,-0.5372399505378863,0.05205457035097216
-0.575343172898528,0.15579292337753356,0.3659688484499084,-0.8258988367380413,-0.5609660480365866,0.05664101362938557
-0.5797199823718966,0.15271346314020687,0.3662926764369626,-0.8104618307603809,-0.5827934698205748,0.05918946202683708
-0.5840379455536748,0.149504228443523,0.36662465884430545,-0.7959171434566656,-0.6024254110787362,0.05999604018931115
-0.588302774202774,0.14617590729000238,0.3669594702648652,-0.7825546987704849,-0.6197543636024844,0.059267800937065414
-0.5925172247572092,0.14274667514441183,0.36729037156532046,-0.7705364753731544,-0.634862392217787,0.05677396469355427
-0.5966815003905012,0.13923767858228134,0.3676040288510381,-0.7596172923971607,-0.6482473150627084,0.052507024341476555
-0.6007909908531134,0.13566150304338148,0.36788669465889673,-0.7493585146974051,-0.6605039771934589,0.04686483289335092
-0.6048410071871103,0.1320317002760499,0.3681272598590084,-0.7394691012791147,-0.6719684723005922,0.04054405612992301
-0.6088264554869729,0.12835381898070128,0.3683224691638435,-0.7297022774430078,-0.6828972548725354,0.03443727024668317
-0.6127442428834394,0.12463095351248601,0.36848248382489246,-0.7199115541914632,-0.6934585881699514,0.029026550517920503
-0.6165909258762298,0.12086710520130484,0.3686162292879098,-0.7101275486214443,-0.703637267789136,0.024768126032017387
-0.6203638873938149,0.11706664111663975,0.36873445608473676,-0.7005667497228277,-0.7132601541283737,0.02159124164010692
-0.624057235060344,0.11324463224894529,0.36883942018151594,-0.6916000214545195,-0.7220237080927195,0.019265909689073945
-0.627666981057254,0.10941228510099506,0.3689330702972982,-0.6836127447807482,-0.7296401533325445,0.017287620373909112
-0.6311899555942972,0.10558678942823199,0.36901770858242444,-0.6771027042150622,-0.7357322584227357,0.01516482313877821
-0.6346251350447364,0.10179388601883971,0.36909430817811745,-0.6726051867565221,-0.7398996872008909,0.012276629352055732
-0.6379718651351539,0.09806062433814594,0.36915836021505916,-0.670379290810812,-0.7419738055403217,0.008153425292825301
-0.6412280994701166,0.09441965060383678,0.3691978854790439,-0.6707298434456901,-0.7416979557343901,0.002370563381731234
-0.6443889079845799,0.09090322843296404,0.3692007970900897,-0.6738834470524899,-0.7388189171446939,-0.005263787400332744
-0.6474470143499969,0.08754264619466381,0.3691600054678628,-0.6799614090087795,-0.7331016494565392,-0.014644241970707851
-0.6503978010872185,0.08436667177076418,0.3690734855669425,-0.6894226307681361,-0.7239037394246121,-0.025686810463842986
-0.6532371521009472,0.08140724052259365,0.36894342329543994,-0.7020750929708044,-0.7110825886511469,-0.03810663914884318
-0.6559618995527394,0.07869438092278713,0.3687698006424486,-0.7176005356691734,-0.6945404730966528,-0.05160428701177141
-0.6585665850021812,0.07624324805818593,0.3685521372425848,-0.7351182222477075,-0.6747370637599474,-0.0658110485251149
-0.6610455030106009,0.07405307970345403,0.36829761269982764,-0.7536363588109586,-0.6524012517245454,-0.08003027818523574
-0.6633889785729424,0.07211887645463913,0.3680160708235971,-0.7716485642573606,-0.6290862263967967,-0.0938563425528193
-0.6655887529432251,0.07041621667292222,0.3677223766554887,-0.7873989781345271,-0.6071589995223421,-0.10658704673519698
-0.667637121679472,0.0689183406078552,0.3674261404290299,-0.7998961876947934,-0.5883304842739167,-0.11846235767261487
-0.6695244074231486,0.06760222179768048,0.36713243978264315,-0.8079314747761516,-0.5748297823894869,-0.12968212422723444
-0.6712386628531698,0.06643800397652226,0.3668422815939061,-0.8105736630419131,-0.5684978100885304,-0.14064343819517638
-0.6727681101095138,0.06539670032855786,0.36656132197607444,-0.8069315691459864,-0.5708418958722871,-0.1516607155216179
-0.6741040989319608,0.06445861444979621,0.3662958347885467,-0.7963208899303872,-0.5823610659989685,-0.1634889264415831
-0.675241520504613,0.06361740192466916,0.3660507494938207,-0.777023987460051,-0.6037586749499444,-0.17807073126813946
-0.6761783482941048,0.06286171881812948,0.36582567814258965,-0.7456778508877757,-0.6362734358978258,-0.19778942708386504
-0.6769141513018224,0.06218925740257525,0.36561459126935164,-0.6983682952538485,-0.6789894143459361,-0.22639589084255948
-0.6774510376763682,0.06160324425520887,0.36541181087951136,-0.6275868139622596,-0.7309809894249856,-0.26795817591551385
-0.677797468829994,0.06110444373708926,0.36521564606109447,-0.5232478895079896,-0.7876871315138402,-0.32520859301828553
-0.677974953495205,0.06069933860992921,0.3650320931575898,-0.37530089682020706,-0.8362629624618284,-0.3997668000979006
-0.6780201332052749,0.060397387838055844,0.3648687504168143,-0.1755374713536745,-0.8507632014358356,-0.49536710754086793
-0.6779792409343746,0.06020265072214784,0.3647328435802425,0.08707811093107101,-0.7776075916460383,-0.622690802895887
-0.6778975068782342,0.060109087649014126,0.3646262414491943,0.4283217078085892,-0.4555407067177853,-0.780399371567529
-0.6778117902958406,0.06011241351417093,0.3645487974313118,0.6243307378750965,0.34282123805562775,-0.701915043635869
-0.6777430407268291,0.06020166874076202,0.3644978627259994,0.4169694214586363,0.8409728900163274,-0.34482038777606566
-0.6776955675331459,0.06036170914565754,0.3644689922258712,0.24065728314533844,0.9594991695513475,-0.14644253377819944
-0.6776637550546591,0.06058116739399247,0.36445686370889796,0.15094766579167362,0.9868411117088133,-0.057960524785050094
-0.6776384723486686,0.060851174619086304,0.36445517091769697,0.11076443483434205,0.9936827316770209,-0.018051834885189508
-0.6776122533265643,0.06115952110898415,0.364458004901636,0.09669554498561819,0.9953110434919047,-0.0024286380936675346
-0.6775816760331658,0.061497780832556345,0.3644609571409172,0.09429959971177387,0.9955436654708857,0.0006289952247913037
-0.6775471314626321,0.061862163487450314,0.36446256806966093,0.09497553497628938,0.9954769385639934,-0.0023048954915552994
-0.6775102905817035,0.062242328539154665,0.3644623369330479,0.09573805588386329,0.9953634164135711,-0.009267897338773003
-0.6774723637484888,0.06263243567382794,0.36445943153421123,0.09577310208286928,0.995204916903423,-0.019866713081820767
-0.6774334254318513,0.06303590902953861,0.3644517708019808,0.09488967137163071,0.9945969890467216,-0.04210438986827263
-0.6773928178595582,0.06346062895804881,0.36443599660560927,0.09433753203207142,0.9939257659140581,-0.056674526043457324
-0.6773497606857548,0.06391652366605532,0.364408919201902,0.09415924962699398,0.9932755441515314,-0.06736266844596178
-0.6773027594600104,0.06441858236501619,0.3643694702990493,0.09457771211038822,0.9929467339621929,-0.07149713201086326
-0.67725086584171,0.0649717471696949,0.3643215245735053,0.0956274045093106,0.9930537292827453,-0.06855428698808522
-0.6771945774843863,0.06556332371235586,0.36427297107438367,0.09717832111153192,0.993473895104334,-0.059715941357115464
-0.6771356338816646,0.06616857227755343,0.3642325189672503,0.09901426208860953,0.9939748181723415,-0.04701315499207276
-0.6770770298409545,0.06675373593257782,0.36420646041588556,0.10088168098186742,0.9943536843291084,-0.032918640667569894
-0.6770228607269057,0.06728035513755444,0.36419502588304115,0.10255014192348925,0.9945300464355472,-0.019835703374988103
-0.6587247614702932,0.050344822740308035,0.6210003278555778,0.054865256649019666,-0.9974174015354074,-0.046350088750648964
-0.6587209238353061,0.050200273422371405,0.6209808075044312,0.07069745749810705,-0.9917089685735161,0.1073088586937544
-0.658708966169213,0.049947769076045714,0.6210197306686126,0.09238480935144759,-0.9800784556636204,0.17581600537240497
-0.6586811129704552,0.04955219484131264,0.6211263722445809,0.12496065287853028,-0.9753590963972855,0.18182262869962673
-0.6586260419744439,0.04900921649605051,0.6212714701189253,0.1738281426629679,-0.973999520932724,0.14528836856805474
-0.6585295603939689,0.048359201706228386,0.621390169991626,0.24648521325380537,-0.9655585603379969,0.08331690227823405
-0.6583705568679477,0.047662928310757136,0.6214245230234263,0.35151201984080804,-0.9359724076855399,0.019873398269272837
-0.658121654774071,0.04698397746006768,0.6213675277128494,0.4961847479415337,-0.8681299353717884,-0.012292730435963885
-0.6577575094334759,0.04638236180420545,0.6212730561357684,0.6734505048651437,-0.7389841714300999,0.01915233334745441
-0.6572591473094342,0.04590359428530873,0.6212294957185986,0.8354278406066409,-0.5359004968240925,0.12194663030611237
-0.6566067624735785,0.04556796209867834,0.621321651912785,0.9196825676331182,-0.30283556169159986,0.2499491895699771
-0.655779843852437,0.0453831898646056,0.6215956351410046,0.9326926102542662,-0.10777126523641821,0.34419449322501544
-0.6547593996898478,0.04535605530771176,0.6220456702242603,0.9199958827266413,0.025548003505881146,0.391094458261545
-0.6535232871482677,0.0454746383796619,0.6226409832530838,0.9092228889383158,0.107598333078056,0.4021645645124475
-0.65205393432036,0.04571639650301112,0.6233375800353007,0.9065467243766392,0.157524520314994,0.39161085534177537
-0.6503434123249074,0.046070674585245185,0.6240936613078597,0.909641506365405,0.18654109061904361,0.37115327212343774
-0.6483856992958428,0.04651954561054783,0.6248845558592206,0.9157614653301305,0.20120940909233787,0.3477006072889788
-0.6461752786725481,0.04703507288569912,0.6256979594734874,0.9225721928279951,0.2059806800502556,0.3262399553497072
-0.6437096439175015,0.047594133459745794,0.626534686282117,0.9285611713539365,0.20656122419517187,0.308393598689722
-0.6409952690899406,0.048196453901448666,0.6273984541061332,0.9329423053585771,0.20576068701503908,0.2954339089395842
-0.6380393561909812,0.04883618471690688,0.6283090327611008,0.9360205204586743,0.2049786827111559,0.28609321018554673
-0.6348600924986602,0.04951634446058902,0.6292653362888428,0.9380808181489088,0.2063156017672469,0.2782772917226503
-0.6314751828025474,0.05025479368820568,0.6302650020106182,0.9395389065922646,0.21006164978654082,0.2704454589901049
-0.6278990625639459,0.05105515078917554,0.631295225408242,0.9409285154974489,0.21575631613659405,0.2609650182896801
-0.624141589718881,0.051917377996223944,0.63233738728398,0.9424377143349654,0.2228912940653037,0.24926015652121494
-0.6202131457845448,0.05284644341501223,0.6333662741615883,0.9438682168069406,0.2322104999223095,0.2349278038622023
-0.6161217485677845,0.053854855252048625,0.634363131823374,0.9446265100017113,0.24432943697552878,0.21905223767222265
-0.611875446565349,0.05495564811025544,0.6353170881336061,0.9443243106117839,0.25913321664395766,0.2027352273763362
-0.6074844745045639,0.056169876823654645,0.636217719322386,0.9425261062116657,0.2769415154498942,0.1869436710075848
-0.6029569736014196,0.05752431802057114,0.6370720651821102,0.9390712361758343,0.29700898271126974,0.1730054264351467
-0.598303849931362,0.05903451910325979,0.6378850554170131,0.9341051774516301,0.3185860672654547,0.16109138773500553
-0.5935338549006384,0.06070933119954989,0.6386707143299806,0.9278620098926186,0.3406896922406282,0.1516661603622118
-0.5886592306495295,0.06255666551947692,0.6394383993139616,0.9207416786340289,0.36258623074888546,0.14410408216808673
-0.5836896365991229,0.06457691395851417,0.6401964057126613,0.9131141192793462,0.38363246978203336,0.13801714857814334
-0.5786345648669656,0.06676635958726151,0.6409465467483052,0.9052727688228008,0.40359683622240944,0.13263034275444438
-0.573502786777417,0.06912152447803788,0.6416887512690619,0.8974852623879128,0.4222217243111691,0.1274716412234592
-0.5683035246889193,0.071636943564061,0.6424212257140128,0.8899678871056115,0.43936100133514083,0.1221436466892816
-0.5630475675743651,0.07429903916795591,0.6431363536896886,0.882911619554542,0.45495717202838304,0.11610789669747598
-0.5577447281980825,0.07709547915624756,0.6438263092607037,0.8764187421062797,0.46901154611056506,0.10917123293168254
-0.5524041071549957,0.080015272796119,0.6444848855824272,0.8706078142615772,0.4815037307083948,0.10097619056280979
-0.5470334783353255,0.08304469427925434,0.6450988851731235,0.8655735232877423,0.4924333598966793,0.0910596609048806
-0.5416386866961285,0.08616719092255809,0.6456520712487929,0.8613467174077707,0.5017955424814441,0.07926579310529303
-0.5362241807068979,0.08936946664260213,0.646129409532354,0.8578379746769165,0.5097211985117586,0.06556149014431047
-0.5307931754148221,0.09263760796051808,0.6465148207199832,0.854952585271164,0.5162867522336044,0.05004064754007151
-0.5253484872712252,0.09595791317637678,0.6467929554838737,0.8524959224217532,0.5216918208489536,0.03299009417366667
-0.5198933445533489,0.09932074799264845,0.6469553992146186,0.8501336651461546,0.5263600213259048,0.01476073626072991
-0.4846808176463163,0.12198678463560687,0.6448306360050001,0.8232207801214579,0.5522289650944849,-0.13172212147886367
-0.47940199801078387,0.1255576504514856,0.643919495186152,0.8165672832878011,0.5536407075254317,-0.1634008532251876
-0.47419001131505517,0.12911975797928002,0.6427956730170754,0.8088831284931509,0.5532552524489867,-0.19903946864062072
-0.4690557336505737,0.13265793810873958,0.6414337155816984,0.8001027477985526,0.5504323304438102,-0.23845301962315701
-0.4640101862923415,0.13615295870318703,0.6398129659685413,0.7900540969860301,0.5447311568242993,-0.28121609239239714
-0.45906533839102137,0.13958421629983234,0.6379162150801028,0.7786359549670321,0.5356915316762088,-0.3267424559541894
-0.4542344801026957,0.1429237014121231,0.6357379823996516,0.7657229938538618,0.522936711609203,-0.37444023866944653
-0.4495306623910963,0.1461409673121054,0.6332764107399932,0.7512260759963989,0.5060638894779691,-0.4237436990793875
-0.4449662952419673,0.14920912384367382,0.630527511213208,0.7348599550103927,0.4849445632318932,-0.47414092537340835
-0.44055293942901086,0.1521025283759472,0.627493510488268,0.7162373252133827,0.4597723296515572,-0.524989046417122
-0.436299177541794,0.15480287559941483,0.6241771516571103,0.6952654329891146,0.4307640651203882,-0.5753679673838448
-0.43221298234565736,0.15729323638861853,0.6205840495284792,0.6719462720696292,0.3985027108745126,-0.6242465833926467
-0.4283014021747742,0.15955849411445439,0.6167256774833352,0.6464075377607349,0.3638438549697947,-0.6706526256765295
-0.4245713214336389,0.16159318968598427,0.6126198655602322,0.6189804218324659,0.32812150092123826,-0.7135821732788009
-0.4210302472753527,0.16339839945210452,0.6082934392801893,0.5901956422987592,0.2921932287731185,-0.7525239005312024
-0.41768706625661256,0.16497731862058956,0.6037827093253121,0.5603085694174317,0.2567565033222872,-0.7874835903300483
-0.41455171784078026,0.16633941777491654,0.5991297507928045,0.529322786519974,0.2222694419237902,-0.8187879352174265
-0.41163682709312993,0.16749252622242167,0.5943763093091109,0.4971501081761898,0.18842044463526333,-0.8469589753841991
-0.4089554728671867,0.16844284282955674,0.5895576707441768,0.4636535532406894,0.1547064947181631,-0.872405457949056
-0.4065190098809768,0.16919051012961706,0.5847048782314775,0.4289853511075783,0.1201414369382948,-0.8952863249628631
-0.40433231059650576,0.16973858762311986,0.5798404545925643,0.3938207493910472,0.0843434544827874,-0.9153094553400966
-0.4023908652650403,0.17008182499978308,0.5749880570625412,0.3594315359651762,0.047281282631437195,-0.9319728811861644
-0.40067730617536834,0.17021453457815425,0.5701720946914812,0.32746068573355347,0.010053070542090531,-0.9448113224721572
-0.39916095807349294,0.17014461107570622,0.5654113503424929,0.29954578765007056,-0.02519301147620396,-0.9537492507330523
-0.39780320057066465,0.1698935567281066,0.560718282941228,0.27684633784283863,-0.05602481162213063,-0.959279586828425
-0.39656179712406997,0.16950175029146233,0.5560966837708727,0.2598265446213388,-0.08014572225373526,-0.9623236617243507
-0.3953968694978697,0.16902103465129323,0.5515365818081647,0.24797094513529694,-0.09650988807305493,-0.9639482620311289
-0.3942779696645857,0.1685028208334717,0.547024457976738,0.24001386242433687,-0.10586346380104995,-0.9649799339241181
-0.3931859884725854,0.16797510903637367,0.5425417480767581,0.2343842587190227,-0.11005576294669295,-0.965894273876264
-0.39211299814498846,0.16745386698367287,0.5380731527628215,0.22964585991552686,-0.11124189537244707,-0.9668960749416681
-0.39105873182445317,0.16693925872697093,0.5336059166178846,0.22476033795187544,-0.11112657905646446,-0.9680566480898554
-0.39002729029988276,0.16642664985291775,0.5291336979796629,0.21912058054331254,-0.11063208539291983,-0.9694053398161036
-0.3890262083692697,0.1659112804911514,0.5246629067749893,0.21249554944195725,-0.10932133774023343,-0.971027541618695
-0.3880613948418773,0.1654026577751121,0.5202032761815314,0.20474410439018992,-0.10641388903333375,-0.9730138415964391
-0.38714260876352324,0.16491376267554048,0.51578026474403,0.19542429918876592,-0.10127884810908266,-0.9754752371087013
-0.3862819074740785,0.16445922177366448,0.511422793527735,0.18382249761900965,-0.09336729990351142,-0.9785151182673864
-0.3854967232857153,0.16406122325667635,0.5071693557939664,0.168935687263544,-0.08215317493674866,-0.9821973271276022
-0.3848071212343142,0.1637333864295888,0.503055801687246,0.1495089916988664,-0.06737574713700838,-0.9864621483356157
-0.3842358181038145,0.16349005603788888,0.4991169059698026,0.12405105683500497,-0.04889777967017191,-0.9910703014627397
-0.38380670472228345,0.16333811762745276,0.49538429675905266,0.09116884040021189,-0.02643656591771727,-0.9954844803022089
-0.38353691343226853,0.16328742239659572,0.4918762859957246,0.04943812426351902,0.00037185361092039625,-0.998777119078224
-0.38344088227480305,0.1633393758470251,0.48860629330969074,-0.0025705290853829045,0.031072104744648027,-0.9995138401677883
-0.3835304196315221,0.16349391921104858,0.4855770472547009,-0.06522673403589951,0.06431797410928312,-0.9957954967630089
-0.3838132872106285,0.16374553676233294,0.48277329052395035,-0.13692285547468,0.09731268903867217,-0.985790227279984
-0.3842931241075249,0.16407769165549416,0.48016009592167597,-0.21319243159893375,0.1258721006192478,-0.9688679999848442
-0.3849700121010198,0.16447204662150472,0.4776870154481233,-0.2873656918810614,0.14579237791878102,-0.9466602039118928
-0.38583598957055837,0.1649052935547122,0.47529053087228335,-0.35303200110282357,0.15439493804021828,-0.922784161819487
-0.38687515653742244,0.16534987000453558,0.4729081755221031,-0.40689521474377893,0.15167298618543326,-0.9007949763848638
-0.3880728229777357,0.16578130510941086,0.4704926575936985,-0.4493068446716556,0.1399163691220434,-0.8823529730118809
-0.3894183338067933,0.16617870357172607,0.46801185672208256,-0.4827079739174779,0.12217454483711152,-0.8672176154289811
-0.39090584329079897,0.16652563105973167,0.4654471416897794,-0.5099459703517321,0.10174847764250718,-0.8541676384758805
-0.3925370261883243,0.16681438158578824,0.4627928548187451,-0.5337126729259616,0.08092755517948678,-0.8417847192548085
-0.3943167137200901,0.16704514870240375,0.4600505945640449,-0.5558901031633653,0.061128179875229914,-0.8290051500625099
-0.3962465098034639,0.16722094804058157,0.45722553187299964,-0.5776686485974639,0.04298399150283087,-0.8151388279931611
-0.3983300594544419,0.16734277658506042,0.45433158364533466,-0.6002637364912818,0.02649857082986174,-0.7993630416759956
-0.40057350348813864,0.1674122469205419,0.45138992173596015,-0.6243995768723308,0.011456438306377608,-0.7810210742502319
-0.40298578676309266,0.167429284284818,0.4484257727408171,-0.6500603669248934,-0.0026882070940528356,-0.7598778144518317
-0.40557706329316034,0.16739127618077365,0.44546414649881905,-0.6769369922957977,-0.015973351735318907,-0.7358676243019928
-0.40835786787742795,0.16730088553238553,0.44252647652884913,-0.7041571351543786,-0.0284539336194256,-0.7094738209918388
-0.41133439988139486,0.16715933371635708,0.43962879765626106,-0.7304954320799638,-0.04052806762844758,-0.6817139425335315
-0.414505740974901,0.16696513932733106,0.43677785212225967,-0.7549737192414724,-0.052439224973135995,-0.6536549632175337
-0.4178686350212689,0.1667142872556873,0.43397760954722464,-0.776825467588776,-0.06437915814706444,-0.6264164085508576
-0.42141535531660346,0.1664035458904337,0.4312271889298396,-0.795718294340184,-0.07633292019624749,-0.6008374833069767
-0.42513687331516115,0.16602801598583253,0.4285225483845106,-0.8114115823390854,-0.08838781945191039,-0.5777532669042367
-0.4290206932591546,0.16558314120002904,0.42585345529546176,-0.824056462779484,-0.10037074702302215,-0.5575452082956192
-0.4330552031488134,0.16506974594001325,0.42321076675561664,-0.8339107778460749,-0.11206353870733456,-0.5404022371202251
-0.43722622667195976,0.16448653571278452,0.420581536251054,-0.8413197655127688,-0.12350080973329317,-0.5262400613339512
-0.4415194287846191,0.16383352148229505,0.4179549196846624,-0.846762112287216,-0.13468036693674862,-0.5146407717589764
-0.4459213075624942,0.1631089530713428,0.41532520711416815,-0.85080600549887,-0.1455909132620499,-0.5049083352278699
-0.4504199070323236,0.16231187084196638,0.4126891558278063,-0.8540257896491528,-0.15593058801157678,-0.49631200099988015
-0.45500602485902397,0.1614438507816611,0.4100482534507727,-0.8569835790777582,-0.16528096740348827,-0.4881202177796394
-0.4596728068362564,0.16050860786234547,0.4074082731980065,-0.8602101841296598,-0.1730340020434491,-0.47968497293165674
-0.46441930763971484,0.1595186064376411,0.40477944161479185,-0.8641461810659106,-0.1784061162196286,-0.47055566667997
-0.4692445223024716,0.15848904278821957,0.40217063576033446,-0.869031049294958,-0.18089508549645275,-0.4605019038012064
-0.4741508239655923,0.15744356378584617,0.39959571565886665,-0.8749625155252561,-0.18023899720749634,-0.4493934804949355
-0.47913879279488975,0.15640514746624015,0.39706527243052614,-0.8817079324867431,-0.17682040753811967,-0.4374078934678775
-0.4842076406955947,0.15539424999257895,0.39458930857227126,-0.8889380814937687,-0.17155578992935577,-0.42468541087714834
-0.4893537069194785,0.15442205553239205,0.3921746237716467,-0.896304593091741,-0.1655140122705342,-0.4113917696609375
-0.49457068269912097,0.15349005670592783,0.38982867284945016,-0.9033501797030071,-0.16009289542449048,-0.39790541296286475
-0.49984911470663673,0.15259020232257384,0.38755682027776894,-0.9097282557384578,-0.1562884216156781,-0.3846666478653213
-0.5051738791299843,0.15170567010215527,0.3853609612539209,-0.9151413946402288,-0.154681532104913,-0.37227657922788265
-0.5105297443911011,0.15082317849045312,0.3832388390100139,-0.9193970899809354,-0.15551538541842835,-0.36128099290267857
-0.5158993654412343,0.14992869982452145,0.38118293801745246,-0.922427217606046,-0.1586843905802501,-0.3520614895238369
-0.5212647525133828,0.14900885895352275,0.379179694746215,-0.9242797948245962,-0.16392290005521354,-0.34472618658362847
-0.5266134459975839,0.14805450154221636,0.37721566625833075,-0.9252165002368926,-0.17094725948400533,-0.3387498519029996
-0.5319368185058782,0.1470584455196115,0.37528411232653913,-0.9255946680207136,-0.17944908191549835,-0.33327546794102586
-0.5372281103869314,0.14601458353606048,0.37338663849772014,-0.9257691022524266,-0.18930931064368714,-0.3272820713365583
-0.54248239785451,0.14491740401972864,0.37153317954170056,-0.9259870233739584,-0.20065777202482146,-0.31981946636981123
-0.5476960503011591,0.14376351776054594,0.3697420058983857,-0.9262482461231512,-0.21359621068347254,-0.3105492639428531
-0.5528621826143544,0.14254917479243062,0.368028807164229,-0.9263321338977212,-0.22861974070069987,-0.29940239122364953
-0.5579737301939449,0.1412601207050141,0.3664069527982323,-0.9257885750716339,-0.24615133558111427,-0.286923394407754
-0.5630234474063671,0.13988526810488458,0.3648793032091476,-0.924150851878405,-0.26665199596165146,-0.2735725059688669
-0.5680044402173865,0.13840873801062353,0.36344327107908053,-0.921035791910262,-0.2903405290287055,-0.2596063312470792
-0.5729086802800846,0.13681276220815233,0.3620976424647103,-0.9161434093058449,-0.31727832580512705,-0.24498105551196922
-0.577725512327094,0.13508174664857808,0.3608393419037337,-0.9094033512785916,-0.34715341062440186,-0.22906342827940027
-0.5824475043449917,0.13319850998313232,0.359677654184596,-0.9010236336462232,-0.37884416612075916,-0.21126644174412326
-0.5870697292632202,0.1311602651063007,0.358623847812938,-0.8913160318491037,-0.41116398593083875,-0.19104949108079963
-0.5915912202229473,0.1289651253709579,0.3576890163622585,-0.8807878211033272,-0.4426899619109928,-0.16804288684528443
-0.5960163593409845,0.12662623801359632,0.3568870016993756,-0.8698942891059639,-0.4722792250616991,-0.14225420681284132
-0.6003501230665531,0.12416363758509463,0.35623203373861956,-0.8590722665988457,-0.49894636372749696,-0.11422507117016839
-0.604595695914144,0.12159715329312543,0.3557321456587518,-0.8483291520939892,-0.5226248531227129,-0.08485819115415973
-0.6087518098032569,0.11894701129569875,0.35539010470274696,-0.8376162614366289,-0.5435115386106251,-0.05471933820904652
-0.612816197769795,0.11622745283869032,0.3552045507160382,-0.8269368097399636,-0.5617568203005097,-0.02459242856962293
-0.6167855566794144,0.1134587072793506,0.3551682845155707,-0.8160344542203564,-0.577980153000119,0.005168390778974075
-0.6206544512723382,0.11065485768970058,0.35526941281826363,-0.8045883117426168,-0.5928400401190388,0.03432689089943934
-0.6244173533297791,0.10782482524060076,0.35550409167169117,-0.7922512074618635,-0.6069043672747895,0.06328596414693298
-0.6280678091471958,0.1049763623823774,0.35587041686899845,-0.7788683249206201,-0.6203719205756845,0.09221069675793445
-0.6315968402356991,0.10211173977204263,0.3563635473893703,-0.7640758831558484,-0.6337217326803545,0.12076758798709039
-0.634994885577822,0.09923381323296711,0.3569803485429176,-0.7478973003285398,-0.6469227518499029,0.1487971145561323
-0.6382534816807099,0.09634772582062218,0.35771173096946,-0.730702332735568,-0.6597387837259832,0.1755529497973751
-0.6413673496329689,0.09346461401522761,0.3585442982708428,-0.71299868300305,-0.67190326608816,0.20044669879042543
-0.6443353639806029,0.09059295813623855,0.35946058122239527,-0.6955320679759828,-0.6829952624017831,0.22305293980078442
-0.6471608120117824,0.0877402904953999,0.3604427342421532,-0.6787357086164579,-0.6928496410258668,0.2434691207920264
-0.6498519220707819,0.08491344481136014,0.36147554614574634,-0.6637405103041901,-0.7003855115815667,0.26250460976478174
-0.6524161335380587,0.08213084052987749,0.36254673544519284,-0.6509807818773863,-0.7051196956118698,0.28112316960103256
-0.6548598507528923,0.07941509262475537,0.3636528655837251,-0.6408058264112417,-0.7063840941969424,0.300648306669056
-0.6571845269051538,0.07679656178302281,0.3647902313647914,-0.6336915200596329,-0.7031373285501225,0.32254139982940017
-0.6593901212142287,0.07430751656254966,0.365961840507011,-0.6300460860961496,-0.6942903302339473,0.34785466324107217
-0.6614761910970102,0.07198832288927645,0.3671686566430635,-0.6300391699861724,-0.6791590224205405,0.3765549980386804
-0.6634428883121152,0.06987136665594719,0.36840658029322404,-0.6334365006417381,-0.6576428870560935,0.4077548684679014
-0.6652917848588658,0.06797565417130123,0.3696643241919566,-0.6406851729621368,-0.6291106017298176,0.4401617429282376
-0.66702494413815,0.06632649597662219,0.3709227832130276,-0.6518787201910717,-0.5936521633495725,0.47183815351497727
-0.6686398103795362,0.06492848211368514,0.37215200445891994,-0.6667527906235793,-0.5523241841474921,0.500378568487377
-0.670129832380992,0.0637793513741052,0.373315903678182,-0.6852771193340743,-0.5057737961174313,0.5240115808626331
-0.6714864290386724,0.06286983807118757,0.3743823524988193,-0.7073627803205365,-0.45446156296215584,0.5413894945482365
-0.6726992696994067,0.06219102090352299,0.37532162968140503,-0.7328533322126191,-0.3984606699523537,0.5515025729459312
-0.673757202239986,0.0617132898940663,0.3761122586896659,-0.7609117884325804,-0.33949974278527656,0.5529495228979433
-0.674649182588493,0.06140245403530323,0.37674336346891374,-0.7926702520859912,-0.2752408322673256,0.5439819442874196
-0.6753637508615691,0.06122783187578316,0.37721119826400346,-0.8323716640456996,-0.1954060968653779,0.5186269084820334
-0.6758932843604626,0.06116171377355394,0.3775146851865838,-0.8874131360497445,-0.0738577785739469,0.4550197298035321
-0.6762423757902799,0.06118529173918865,0.37765825807445674,-0.9454891411255971,0.17406840303820745,0.27522804195304856
-0.676430858129211,0.06129199954136054,0.3776526026627501,-0.7625211488675475,0.6186690512301691,-0.1892355742974286
-0.6764954045539638,0.06148087493408887,0.37751716784636574,-0.2724997003414688,0.7865842179129512,-0.5541021399020948
-0.676483116309067,0.06174624046223132,0.37728203937031857,-0.03385218648808388,0.7640613831501029,-0.6442547883009698
-0.6764377175945306,0.0620728465976403,0.3769816368881831,0.04265782097137459,0.7438586500430767,-0.6669742266880075
-0.6763902850491282,0.06243896327173197,0.3766469327179844,0.05561689782756757,0.7348709107600503,-0.6759227065240019
-0.6763575810430467,0.0628194183431533,0.37630100330263977,0.04350410314853466,0.7281788000997814,-0.6840051374766745
-0.6763429046574664,0.0631869123147783,0.37595864164298765,0.024336559796275893,0.7170731655638298,-0.6965729014866647
-0.6763409374694322,0.06352142780957426,0.375630087674406,0.006595153837245271,0.69864829880372,-0.7154348737128564
-0.6763457610834457,0.06380942285264675,0.3753254502183971,-0.007664578826888344,0.6714783841485882,-0.740984503112317
-0.6763534175947811,0.06404287126353721,0.3750543174209248,-0.019172989220563826,0.63329605316231,-0.773672091737442
-0.6763616005882067,0.06421473578984792,0.3748242219714495,-0.029044981033867198,0.5793478470601727,-0.814562742324669
-0.6763696469624678,0.06432523717970912,0.37463978789838837,-0.039127479102058604,0.5053065317900415,-0.8620524051990329
-0.6763776920306305,0.06438173436898784,0.3745021610188352,-0.05134661833053516,0.4090449115442439,-0.9110684854201577
-0.676385227651561,0.06439912361755262,0.37440729838695236,-0.06293967228132366,0.3146568356034697,-0.9471165046926016
-0.6763914131021039,0.0643975152200553,0.3743442175599097,-0.06385269048151507,0.304424489563805,-0.9503938994291202
-0.6763961875599467,0.06440067418099824,0.3742915695682271,-0.05021849787666272,0.40933090482266965,-0.9110029159273126
-0.6764003690593261,0.06443421377849975,0.3742169157803368,-0.036221450670919725,0.5064267304102587,-0.8615218936494125
-0.6764053702638343,0.06452284972895266,0.37408159046681955,-0.029513704298486793,0.5474923320357483,-0.8362900738503594
-0.6764127273145022,0.06468672592678983,0.3738487791371461,-0.027499721935649847,0.556155776119836,-0.830622969813624
-0.6764238541303607,0.06493727786938894,0.37349023901813555,-0.02751464641402278,0.5508340962776027,-0.8341611011134167
-0.6764397478705263,0.06527373832656835,0.3729926823049201,-0.028328784743160612,0.5394795991617198,-0.8415219795366522
-0.6764608958336192,0.06568275629531392,0.3723596003749048,-0.02944191183855065,0.5252383202074415,-0.8504456953932781
-0.6764870186924344,0.06614288745999902,0.3716105384713422,-0.030664631287902012,0.5093784602561273,-0.8599960840696159
-0.6765169744312857,0.066629719292227,0.3707784134403138,-0.032018075024057256,0.4918412230256054,-0.8700960028665977
-0.6765492261096262,0.06711727571059543,0.3699041518179129,-0.03370442818451384,0.4713253118915351,-0.8813151887327838
-0.6765825604338099,0.06757869509040765,0.3690290762430015,-0.036068810473471914,0.44545709762709035,-0.8945764445170002
-0.6766164452645202,0.0679889584490393,0.3681875777713061,-0.03953013087310959,0.41103639881459103,-0.9107614658090709
-0.6766508421012377,0.06832651910807448,0.3674069790345085,-0.047854532691204946,0.3343806995087617,-0.9412223390341613
-0.6766859756591026,0.06857662074977106,0.366705179064176,-0.05586860270781815,0.2601875755500108,-0.9639404155656528
-0.6767216962127327,0.06873388259056122,0.3660941616072712,-0.06621423302470948,0.16096023395810277,-0.9847372636541699
-0.6767574539088983,0.06880259399210299,0.36557920214382256,-0.07872305511975067,0.0322893418804144,-0.9963734636136905
-0.6767924374320526,0.06879383160227402,0.36516008182264975,-0.09258281748510419,-0.1268616324999013,-0.9875902733957943
-0.6768258488399936,0.06872363263829569,0.36482994942213,-0.10610966471599305,-0.31024693570414213,-0.944715606910381
-0.6768567447667395,0.06861043182182967,0.36458011628983344,-0.11694816771031666,-0.5016554357204485,-0.857125982502763
-0.6768841765996415,0.06847216998062844,0.3644018316880659,-0.12297111439068717,-0.6768500566343179,-0.7257768981302954
-0.6769074341642723,0.06832524530835174,0.36428583469706605,-0.1233076623490767,-0.812534157231211,-0.5697222689509087
-0.6266359121368613,-0.03311491575293722,0.612860342559604,0.16441997580472978,0.8955588730848959,0.4134493637620976
-0.6266338313868406,-0.033100997075329985,0.6128660856146504,0.4073851617068095,0.33399181332088584,0.8499922344679057
-0.6266253009029753,-0.0331066379435556,0.6128832135069184,0.4510463294379362,-0.09360976715980807,0.8875778389487038
-0.6266078891086736,-0.03312683007002411,0.6129164017030748,0.4547692996468881,-0.12763608813779326,0.8814158570751722
-0.626580076779505,-0.033148418635764745,0.612969125958793,0.4563667103115428,-0.004257621981086237,0.8897816015036987
-0.626541724984171,-0.03315452196922689,0.613042653574543,0.445621626636464,0.1490892988794747,0.8827195176461765
-0.6264895149610665,-0.03313664621676264,0.6131445537704747,0.43023096917465553,0.2512554495037048,0.8670478719527128
-0.6264147640359574,-0.03308440734632886,0.6132945801578691,0.4193857607667131,0.30001654607275224,0.8567996590502948
-0.6263044793854154,-0.032990894774318325,0.6135219024135212,0.41560011545221687,0.31337267916934797,0.8538583652962176
-0.6261423290969238,-0.03285729087204288,0.6138603129758682,0.4173288490337088,0.3110406551698341,0.8538678718605827
-0.625912813428986,-0.032684799889052825,0.6143381652361866,0.4224934177939584,0.30680810202902803,0.8528587810711251
-0.6256050997270933,-0.032465880100226774,0.6149706509772175,0.43053710145051993,0.3055932961923303,0.8492647064354502
-0.6252131523278912,-0.03219086413330807,0.6157576557786781,0.44208790877939136,0.30647921209770485,0.8429880031548697
-0.6247311972152871,-0.03185177376856624,0.6166921831783172,0.45811533850941183,0.3073281645117517,0.8340741789075147
-0.6241511642883785,-0.031448281399612255,0.6177627790107749,0.4794044341053879,0.3057445805574238,0.8226126913802495
-0.6234636358996062,-0.030992107982115834,0.6189517089669654,0.5064422535850601,0.2988347218855521,0.8088349972517697
-0.6226586341230917,-0.030506144146952397,0.620235812172232,0.5389686891599508,0.28488876764472476,0.7926860300112992
-0.6217264826233774,-0.030015266978533277,0.6215921578545667,0.5762919067391717,0.26456605665560645,0.7732350482826242
-0.6206617616802318,-0.02953900661865723,0.6229930567858628,0.6172864807050465,0.23937594305369977,0.749437494809227
-0.6194619528045845,-0.029094179863999876,0.6244101410887726,0.6605924822398004,0.20931926607084628,0.7209736591997112
-0.618120966710044,-0.028697168435373937,0.6258263191323614,0.7046439919498365,0.17606082291898528,0.6873713925106925
-0.6166324401115225,-0.02836281369904444,0.6272249278315345,0.7479008373615691,0.14243786115203183,0.6483485121324012
-0.6149954187599787,-0.028094969638276106,0.6285812306063756,0.78871488479471,0.10997618043790443,0.604842186226752
-0.6132085966733225,-0.027894593570941234,0.629880818062307,0.8256822325990356,0.08094339615571805,0.5582983229323284
-0.6112737707728115,-0.02775772713052,0.6311147628998162,0.8579296068886937,0.05850180268118105,0.5104256348449435
-0.6091984164395491,-0.027666404646417918,0.6322706026850462,0.8851225009185845,0.04509935764717848,0.463167579076345
-0.6069910021882808,-0.027596316754360518,0.6333454168444805,0.9071602323394958,0.04160709925692656,0.41872325246297987
