-0.5327648672222136,0.10491267936940674,0.6442193375656675,-0.968791242396356,-0.23737344874373387,-0.0713958996555907
-0.5337589329008501,0.10469704299232664,0.6441179866209703,-0.9630387837736015,-0.24786477240541074,-0.105448354886532
-0.5347509977345258,0.10446113237656535,0.6439793903186933,-0.9557728823633033,-0.2598974330750422,-0.13766452564094755
-0.5357407223573332,0.10420787684742273,0.6438012001634008,-0.9470903205389724,-0.27347213884697413,-0.1680265277146673
-0.5367251810760074,0.10392839321152621,0.6435853346142092,-0.9372078358033705,-0.28836802289756713,-0.19617684847838315
-0.5377029192072307,0.1036193425348426,0.6433376849802518,-0.926471757322516,-0.30418615454838976,-0.2216322771276603
-0.5386730954866669,0.10328219570321538,0.6430605205976555,-0.9154853588086576,-0.3199018273459851,-0.24402741376264145
-0.5396370037839241,0.10292375078064467,0.6427590615654426,-0.9047637759289056,-0.33423394508936055,-0.26398897650635256
-0.5405939906148611,0.1025426964303087,0.6424388318407851,-0.8946556999634473,-0.3472135631436134,-0.2811297211111451
-0.5415440079589604,0.10214106876415592,0.642101846541544,-0.8852131942587597,-0.3588693112007453,-0.295990571114193
-0.5424882872793835,0.10172614510827105,0.64174731455077,-0.8769064062426664,-0.36823391292046287,-0.3089319343574841
-0.5434274058949143,0.10129911071033076,0.6413796384307041,-0.8696675100911115,-0.37620543004832824,-0.31960584521262847
-0.5443606163633168,0.10085839067154595,0.6410020714760793,-0.8630438831058554,-0.3838705790150784,-0.3283270235606489
-0.5452889878419838,0.10041041454306937,0.6406158951021457,-0.8577087158164346,-0.3897412358900279,-0.3353170557240357
-0.5462141310430817,0.09996213352415269,0.6402242324619211,-0.8536234763037129,-0.39407169596799035,-0.34063831132166594
-0.5471349912456227,0.09951057106038225,0.6398302456154649,-0.8505556821506371,-0.3978617416179144,-0.3438910672262721
-0.5480523474573842,0.09906016916634391,0.6394375789536236,-0.8489947475891507,-0.39966581419834823,-0.34565178363087606
-0.5489668525092076,0.09861628806000065,0.6390452436018177,-0.8484841900860869,-0.4002677085134069,-0.34620852198549895
-0.5498775940969887,0.09817539709056793,0.63865746348911,-0.8486147575839411,-0.4011110102017685,-0.3449100617634484
-0.5507848594218292,0.09774113621782701,0.6382742860696755,-0.8492796638028991,-0.4014446522574969,-0.3428793429541827
-0.5516874605476323,0.09731439577575499,0.6378967262927493,-0.8507516082566806,-0.40094868199229516,-0.3397967855311653
-0.5525849352007782,0.09689483701115922,0.6375273642222246,-0.8523963548438476,-0.401104062592546,-0.33546383593567386
-0.5534772677849279,0.09648580596691192,0.637165761441775,-0.8542477923951224,-0.4018744128861238,-0.3297842710856496
-0.5543623297079611,0.09608282757270255,0.6368155967933807,-0.8563698244788381,-0.4025458214957863,-0.3234000391440402
-0.5552374822721854,0.09568091495585064,0.6364777259103626,-0.8585427104141917,-0.40394183011390766,-0.31580913900468466
-0.5561038440545996,0.09528639621871225,0.6361524643233206,-0.8604331544865478,-0.4070421564249111,-0.3065476627757689
-0.5569591088045103,0.09489401647247768,0.6358410870385893,-0.86218772658703,-0.4113602213349829,-0.2956604343261415
-0.5578018406101759,0.09449977158794515,0.6355484712414102,-0.8641106893605645,-0.4162145358337979,-0.28298087690419343
-0.5586321390728093,0.09410568255032825,0.6352739718672662,-0.8657374133794412,-0.42209873329829667,-0.2689449579803418
-0.5594500032109588,0.09371351048883875,0.635017117901031,-0.867071473205374,-0.4290774667754641,-0.2531394632589171
-0.5602554478531394,0.09332308215471674,0.6347805031170494,-0.8677063585278881,-0.4373958634769688,-0.23615785818707954
-0.5610467754799044,0.09292948858199655,0.6345663156702737,-0.868168429795526,-0.44577663927537586,-0.21809806368402776
-0.5618236969814718,0.0925323022122301,0.6343780915582963,-0.8681880526874827,-0.454331380566119,-0.19958081521930196
-0.5625855617108503,0.09212984809815561,0.6342129914845053,-0.8675618240661757,-0.46333700195474775,-0.1807077863362733
-0.5633338942402637,0.09172656361078045,0.634071045025097,-0.8663074038505423,-0.47262211070105237,-0.1616781448131302
-0.5640676115931655,0.09131836053249366,0.6339506403643033,-0.8644107099035008,-0.4821110306523453,-0.14269925972989242
-0.564786472933733,0.09090373212836189,0.6338536898979579,-0.862083536000494,-0.49132938393120484,-0.12412660247774294
-0.5654921010558451,0.09048895490113758,0.6337774430113271,-0.8597520110968399,-0.49942056110477917,-0.10679692205642888
-0.5661851387675749,0.09007626286003118,0.6337198474030715,-0.856848309719404,-0.5075133383872149,-0.0907809753751563
-0.5668655055160603,0.08966468913022566,0.6336805266109782,-0.8531842836093114,-0.5159932603375063,-0.07633828324200483
-0.5675320915813167,0.08925158879087038,0.6336549297889986,-0.8493068498803313,-0.523931704650714,-0.06460219507219098
-0.568186792279329,0.08884102614038944,0.6336398423833928,-0.8455711515596128,-0.5309682497915493,-0.05551707272046447
-0.5688287270850112,0.08843077916056355,0.6336319751700086,-0.8416019536303452,-0.5378245787203442,-0.04950630434470582
-0.5694571999384503,0.08802076394133042,0.6336290313409875,-0.8369635589357494,-0.5452962862125125,-0.04630292924260597
-0.570072531966903,0.08761380593602225,0.6336262019041746,-0.8324279597383454,-0.5520913337439189,-0.047527371594862484
-0.5706755709869129,0.08721173049994918,0.6336186611245956,-0.8282690428640979,-0.5578393883637993,-0.052778872883888724
-0.5712647707653505,0.08680955004932195,0.6336034527471055,-0.8233465018647319,-0.5642305742008276,-0.06119147819846913
-0.5718408397791483,0.08641030726081814,0.6335778868920939,-0.8177634218447486,-0.5709973186257237,-0.07228449359995044
-0.5724041097133649,0.08601672990200646,0.6335401328651992,-0.8121738691810367,-0.5769928812784971,-0.08632972358025003
-0.5729540619852966,0.08562838629067572,0.6334890330053312,-0.8057748125224627,-0.5831483272468596,-0.10327138971457406
-0.5734898041364209,0.08524080710252353,0.6334269950969201,-0.7984905915729887,-0.5894260431806787,-0.12243249074403091
-0.5740108695526688,0.08485247115034758,0.6333500008677457,-0.789425331341008,-0.5968806493827332,-0.14332179397979466
-0.5745181631299904,0.0844663262321782,0.6332573358771607,-0.7794720299153383,-0.6041566194566111,-0.16558421949697272
-0.57501169203658,0.08408409989532944,0.6331455940527935,-0.7681054883686012,-0.6116676748523456,-0.18941123060356788
-0.5754910508213906,0.08370644459970468,0.6330166111603146,-0.7550494251832393,-0.6197730105347615,-0.21396677532537203
-0.5759553831018758,0.08333029187501725,0.6328709980030155,-0.7395816028073928,-0.6293324457935499,-0.23866236708026745
-0.5764045830207487,0.08295612213965925,0.6327105262020009,-0.7218479635336825,-0.640282602178861,-0.26262845788174166
-0.5768383080560279,0.08258407593731376,0.6325351417107122,-0.7022137801031496,-0.6521228804043847,-0.28571236565177544
-0.5772551105347654,0.08221139982872398,0.632347870773892,-0.6808862228025987,-0.664331105807882,-0.3083149906405567
-0.5776534560942639,0.08183419560194746,0.6321505294926573,-0.6571474316831076,-0.6778434434822325,-0.329674868863923
-0.578031375181712,0.08144756883533427,0.6319444036236075,-0.6311479525037802,-0.6922806037221456,-0.34985686753354966
-0.5783895352008488,0.08105427998252807,0.6317283298961056,-0.6036557661886297,-0.7069085446159675,-0.36861907912661396
-0.5787263006167576,0.08065300599919262,0.6315047712068836,-0.5749763303904598,-0.7214982541691304,-0.38580109994868855
-0.5790409396291369,0.08024593925899695,0.6312742651609407,-0.5450398817154847,-0.7362406914134233,-0.40109995218979366
-0.579332174092258,0.07983010646206457,0.6310386451191643,-0.5140865955590034,-0.7511763593385051,-0.4140640644121423
-0.5795998498331421,0.07940912722167161,0.6307962539259693,-0.4824846841479845,-0.7657805055971735,-0.42519259966508943
-0.5798437567603414,0.07898381547038974,0.6305494374012038,-0.451139233918565,-0.7795408144325113,-0.434499148737103
-0.5800638727795376,0.0785565677464119,0.6303015262786408,-0.4200969263261949,-0.7928746530223145,-0.44143896190303333
-0.5802594419512964,0.07812659411952734,0.6300571620615054,-0.38986689968703697,-0.8055319572276275,-0.4462309563594232
-0.580431986212043,0.07769932823560063,0.6298183359978421,-0.36099653424491196,-0.8171509204444567,-0.4493838843126656
-0.5805826262084748,0.07727668143832007,0.6295865235686662,-0.31299101032815846,-0.834842124651809,-0.45285235382032885
-0.5807135728859212,0.07686403909170192,0.6293617800297207,-0.2902467875942653,-0.8421602157555386,-0.4544479874416806
-0.5808258073159084,0.07646350494006146,0.6291472440682633,-0.26996052778276686,-0.8480321855819186,-0.45602930350625964
-0.5809218187521968,0.07608198526582674,0.6289446975897613,-0.25230940316954364,-0.8525090993740124,-0.4577861952448312
-0.581003668606464,0.07572407334459397,0.6287558063478945,-0.23713596353068767,-0.8559198050704608,-0.4595300012931874
-0.5810735787216521,0.0753921810868128,0.6285815557188376,-0.2243881285460476,-0.8584007407055447,-0.46130048355033704
-0.5811332304772485,0.07508836422583257,0.6284228328803321,-0.213839479080998,-0.8601743704363346,-0.4630040276615562
-0.581183975901061,0.07481347902281253,0.6282809561721717,-0.20536195429157433,-0.8614230428256754,-0.4645178242204489
-0.5812270262856566,0.0745689499820983,0.628157322093618,-0.19903713015678676,-0.8620999841031504,-0.4660127017885866
-0.5812640775561332,0.0743572160331308,0.6280502566955078,-0.19518820459670744,-0.8615837090977951,-0.4685883876107045
-0.5812960237520716,0.07417715880255635,0.6279589307964627,-0.19398933350034142,-0.8595577427834425,-0.472788139983573
-0.5813242256911919,0.07402937496126809,0.627881266462887,-0.19606686542228133,-0.8550976383202276,-0.4799643874524966
-0.5813487645318582,0.07391267285968353,0.6278171062043894,-0.20154005149994253,-0.8477622170827264,-0.49059232660976343
-0.581370361238921,0.07382672970815327,0.6277643235879434,-0.21094240239339598,-0.8362545492787445,-0.5061438843679791
-0.5813888909026387,0.07376644288889866,0.6277216301344848,-0.2244712491601636,-0.8194530518363992,-0.5273607438333722
-0.5814045873846441,0.0737289113005713,0.6276877904400655,-0.24317378999824674,-0.7949291915450075,-0.5558363862572235
-0.5814173870095418,0.07370829451037397,0.6276622409395008,-0.26775457521931695,-0.7602749330664831,-0.5918526113821562
-0.5814275374254999,0.07370205513241834,0.6276441413938983,-0.29948968818796157,-0.7107593286537489,-0.63649595709694
-0.5814348795928219,0.07370519692791141,0.6276328256036654,-0.33695430505473367,-0.6439984836222963,-0.68682439487635
-0.6346654008512367,0.16487926810072256,0.3452476562645002,0.050547097673195915,0.01788020756542073,0.9985616100643133
-0.6346650001460105,0.16487983217567628,0.3452535998695184,0.04887467536515026,0.01730030355876862,0.9986550783953014
-0.6346644927985662,0.16488089100097497,0.34526379676727365,0.04835887254250487,0.012003414533174977,0.9987578973334641
-0.6346638526216628,0.1648822806936654,0.345279628724823,0.048698512611717155,0.0037792743888497527,0.998806373605265
-0.634662862202961,0.16488388451734978,0.3453028710444145,0.04930063300307118,-0.005802993932205041,0.9987671264348458
-0.6346615203346381,0.16488559929214547,0.3453338783563599,0.05001934809677969,-0.01614986119722876,0.9986176679787332
-0.6346596935150991,0.1648867339062571,0.34537475035468407,0.0507813791031996,-0.025045603011131425,0.9983956977602548
-0.634657356779583,0.1648868923134149,0.34542601816321067,0.051695322221395563,-0.03157476388614907,0.998163627841628
-0.6346544313314535,0.16488622785620646,0.34548794497522295,0.052646382483374464,-0.03670117954142836,0.9979385661611049
-0.6346508118288822,0.16488473694960365,0.3455615514293252,0.05352975220437826,-0.0413262916333308,0.9977107312486794
-0.6346464350592786,0.1648822251696018,0.3456475119826494,0.05435412243578461,-0.04536597825381772,0.9974906302273269
-0.6346413096746006,0.16487890586188195,0.34574472026765013,0.05515217955617086,-0.04934541097616792,0.9972578741257433
-0.6346354751712825,0.16487449186258718,0.34585239943578144,0.055857097231638855,-0.053772649246477726,0.996989712525596
-0.6346289897811646,0.16486842203483673,0.3459698404677219,0.05653128540330297,-0.05814865372921922,0.9967060488630185
-0.6346218287569203,0.16486026610138976,0.34609761569730957,0.05717204915729875,-0.062463369078833215,0.996408392336434
-0.6346139766878701,0.1648501101158637,0.34623518531698055,0.05779327754916435,-0.06671742103369208,0.9960967436954797
-0.6346055054187292,0.1648380461944082,0.34638060788760927,0.05842179843344958,-0.07083365259645905,0.9957758217227639
-0.6345964516301299,0.1648250776861852,0.34653249677965925,0.0591501084226613,-0.07350077259552605,0.9955395025318926
-0.6345869422878402,0.16481163000742127,0.34669058539935266,0.059970395458327656,-0.07332362565245373,0.9955034894914988
-0.6345768174150751,0.1647974642339863,0.3468550698857053,0.06088627646395336,-0.07207246652117849,0.9955392613593441
-0.634566200685238,0.16478324894203505,0.3470258921006381,0.061681361655314335,-0.07023468712862428,0.9956216642622289
-0.6345555641714683,0.16476924400147153,0.3472016362337675,0.06217614759817638,-0.06674230514750787,0.995831105847496
-0.6345445850302136,0.16475510724191025,0.34738095853760764,0.06290182226666885,-0.0620727895444526,0.9960875109917314
-0.6345332939115854,0.16474136427028707,0.3475640636343689,0.06371338012661172,-0.056024385417616264,0.996394436672255
-0.6345215013964306,0.1647287205879926,0.3477512561973036,0.0645777609502273,-0.04924319750589699,0.9966969550921938
-0.6345093567719716,0.16471735683962396,0.34794141576582693,0.06548332350755365,-0.04199199973230655,0.9969697118272385
-0.6344968216722243,0.164707272493462,0.34813418465997764,0.06638530240435178,-0.03453583609982539,0.9971962031864986
-0.6344840222549093,0.16469917599225808,0.3483277123468055,0.06732163962393997,-0.026786892143005364,0.9973716755792011
-0.6344708836038514,0.16469386425321375,0.3485212937584922,0.06825514969969584,-0.018739421237655412,0.9974918890051938
-0.6344574192991143,0.16469138144519388,0.34871537743584563,0.06918071541516853,-0.01070925160500191,0.9975466608358259
-0.6344437250137487,0.164691428581283,0.3489085476958199,0.07003912414145569,-0.0028301388192849097,0.9975402304688074
-0.6344300040155116,0.16469371749227843,0.34909878570192054,0.07088898079380285,0.0053036268364708514,0.9974701118050584
-0.6344164094617553,0.1646977013174083,0.3492851273605282,0.07175942167081321,0.013519178471808984,0.9973303450787597
-0.634403008286574,0.16470292074174073,0.3494672112497533,0.07262682907915158,0.02167913586579584,0.9971235423787868
-0.6343898576800565,0.1647093911340092,0.3496445462362439,0.0735449032015943,0.029999832283284854,0.9968405876949649
-0.6343770963448464,0.16471676757533726,0.3498160196685591,0.0746335467749927,0.039007417412698045,0.9964478185447426
-0.634364857764615,0.16472422942960138,0.34997969854320593,0.07592179088326792,0.04960097349600172,0.99587932255737
-0.6343532724818892,0.1647315110658447,0.3501345517064275,0.07753068400849189,0.062366215729264436,0.9950374104388169
-0.6343423508442837,0.16473818375024166,0.35028018632858493,0.07961482287895627,0.07883897715711957,0.9937031224962372
-0.6343321150183638,0.1647449996563709,0.35041676303388447,0.08269449633861403,0.10171300339184008,0.9913708111581229
-0.6343228169620715,0.16475200671350113,0.35054320086948315,0.08756889461081935,0.1338570473149659,0.9871240953298415
-0.6343148363172265,0.1647597762560596,0.35065775241885083,0.09585123203506678,0.17790443897791208,0.9793684454327258
-0.6343084230455309,0.16476948142022146,0.3507610534456922,0.11076587227674758,0.23970593532512371,0.964506084018488
-0.6343035701437624,0.1647823367852532,0.35085357683175633,0.13705100522952773,0.3270268933679329,0.9350242953954163
-0.6342999740694463,0.16480004316379418,0.35093489916794735,0.18059053328989116,0.4464730604274501,0.8763839715550594
-0.6342969918997986,0.16482389850538018,0.3510034811817363,0.24566856582230565,0.5963922514595016,0.7641748740739114
-0.6342937065831278,0.16485516957130844,0.35105825493391135,0.32815767609253016,0.7522530641119716,0.5713386624023445
-0.6342887765746331,0.16489605946081512,0.3510984739958171,0.407371367085396,0.8586644933597095,0.311036745614226
-0.6342805711283818,0.16494864780494256,0.35112302236477966,0.46480096035899804,0.8839011951490597,0.051756588599106104
-0.6342665994527552,0.1650144753745892,0.3511305022019042,0.501726007305957,0.8519036748564038,-0.15010377196785277
-0.6342434716684023,0.16509366182445362,0.3511185795231941,0.5272349677414115,0.7987687808050278,-0.2898132564289671
-0.6342079841674497,0.16518538020868914,0.35108617412832155,0.5475802843463534,0.7442922600129569,-0.38234129240767556
-0.6341564440320593,0.16529087063616082,0.3510323801676406,0.5661013951125549,0.6946790583667578,-0.44379073482700576
-0.6340858081081577,0.16541062643834623,0.35095759962789497,0.5844134471031666,0.6504032143245511,-0.4852180763752382
-0.6339920530059132,0.16554340830400482,0.35085988137372187,0.6020859721479842,0.6120401038308647,-0.5127371582451591
-0.6338724903808716,0.1656902982481538,0.3507391367677303,0.6198615279539609,0.5770961146039613,-0.5317252680394194
-0.6337238609386521,0.16584662240084524,0.3505940029627583,0.6363699962229981,0.5470217332137752,-0.5438754005274912
-0.633544190263407,0.16601381974630205,0.3504246249113773,0.6521231828417094,0.5204141175797314,-0.5512753401197154
-0.6333319837315089,0.16618930731011883,0.3502324011030324,0.6666158411519199,0.49727635267741865,-0.5552833055235515
-0.6330870012347938,0.16637302716135877,0.3500184114472496,0.6799300268772145,0.4770230173299037,-0.5569059161907197
-0.6328098478126362,0.1665625985931124,0.34978371249393453,0.691936400671184,0.46006777427049395,-0.5563826565449362
-0.6325020139893779,0.1667603636985659,0.3495307991338052,0.7029826050988979,0.4451171610182357,-0.5546946636623007
-0.63216401149668,0.16696362110367047,0.3492608180704795,0.7129240821935665,0.43275770060075935,-0.5517789644406574
-0.6317983908274539,0.16717254172703983,0.3489765218427573,0.7218959054918747,0.4224754115975628,-0.5480700942667246
-0.6314053504155565,0.16738724233432392,0.3486778748196053,0.7297325595033324,0.4145524781623238,-0.5437247782198191
-0.6309880321443713,0.16760817669270306,0.34836804033374563,0.7364718602018675,0.4086056811394882,-0.539120205957202
-0.6305470361489677,0.1678349062915964,0.34804629312971647,0.7420652741167578,0.4052739014137079,-0.5339402530086426
-0.6300847834463629,0.16807104601270878,0.3477145429461755,0.7466027985631319,0.403939867275653,-0.5285989451399117
-0.6296015970044084,0.16831602120510375,0.34737203173668946,0.7500228047128022,0.4050684368895828,-0.5228626529468057
-0.629097999686212,0.1685713010206421,0.3470194845872038,0.752542664767008,0.4082354666905458,-0.5167430129583978
-0.6285748313070043,0.16883815532077867,0.34665767145227244,0.7545489086816456,0.41291543834357,-0.5100556687116368
-0.6280318275538284,0.16911852614869666,0.34628734966153046,0.7561092004049454,0.4190662862403563,-0.5026751682744134
-0.6274693834479831,0.16941717912771925,0.34590953556040566,0.7573784406842464,0.42635384804651555,-0.49457081782352275
-0.6268887899141424,0.1697374321566269,0.34552671338061897,0.7586047467755807,0.43364836042381233,-0.4862796907863792
-0.6262875853011592,0.1700773302120689,0.3451358520161597,0.7598034038758077,0.44115837217517445,-0.477575206766941
-0.6256677968468818,0.170440684988531,0.34473942124189133,0.7613629173991353,0.4481787085613547,-0.46846809197826234
-0.6250282270271554,0.17082310602331052,0.34433719305906807,0.7635085606623881,0.45423596432531477,-0.4590472377748282
-0.6243690230649351,0.1712260971238378,0.3439317092192855,0.765915890866967,0.46004926438234656,-0.44914087150772897
-0.6236900416119102,0.17164621578182748,0.343525492894663,0.7687002954215457,0.46525399375410087,-0.4389061142370739
-0.6229909136154436,0.1720828636886991,0.3431176863021828,0.7717345336284581,0.4702632382956109,-0.4281101450713261
-0.6222722054437143,0.17253460507399698,0.3427099231523717,0.7751383130391598,0.4748153894467209,-0.41678644604085224
-0.6215339059998286,0.17300503782088028,0.34230507961308004,0.7790340376474871,0.4785854371423999,-0.405045611680798
-0.6207747371755425,0.1734903896172448,0.34190413711635415,0.7836526212653009,0.4808203129671106,-0.3933197119675451
-0.6199949431223538,0.1739897205541997,0.3415077176382219,0.7889914125947955,0.4818117298222648,-0.3812479611189363
-0.6191923777328154,0.1744986738846115,0.34111584114640453,0.7949658536524635,0.4815812323470657,-0.36892927259529246
-0.6183681018990073,0.1750130422101051,0.34073031191668096,0.8013793974782819,0.48061727418129485,-0.3560872042855342
-0.6099526106162916,0.1797742580257995,0.33770467710249674,0.8626378029985845,0.4506588456954431,-0.2297011659400663
-0.608909935554145,0.18031647015756358,0.3374374925865791,0.8681295465923687,0.44680633449225027,-0.21613696997720577
-0.607845270233478,0.18085954661986886,0.3371860991174101,0.8734001481232323,0.44255657948332877,-0.20326301979044806
-0.6067580197223916,0.18140387634563876,0.3369484817946849,0.8784747101832876,0.4380538762175719,-0.19076421336075916
-0.6056482752971325,0.18195017582156686,0.336724389280942,0.8832654115695024,0.4334026960861452,-0.17889750068186505
-0.604516841210122,0.18250060537309673,0.33651240324401444,0.8878087621951088,0.4284643784303729,-0.1679698728518388
-0.6033650987547049,0.18305514363561654,0.33631381264156457,0.8919696618043756,0.4236205522896304,-0.1579105762715602
-0.6021936820900967,0.18361442984300985,0.336127277922759,0.8957596984568886,0.41892251405410585,-0.14872286252964437
-0.6009999225838792,0.18417450670498042,0.33595002846425254,0.8991895681361098,0.4143596872261681,-0.14058509934210164
-0.5997833855395108,0.18473511071596976,0.33577816480535183,0.9024114949281292,0.4096533824555609,-0.13355747850381497
-0.5985442668403451,0.18529408186241425,0.33561085599373347,0.9055040569469189,0.40476442337528845,-0.12738981286720358
-0.5972851071540414,0.18585140160683006,0.33544891761135837,0.908457658480857,0.39968012580745965,-0.12231304011433783
-0.5960075251299936,0.1864064853165388,0.3352915863511721,0.9111273338937825,0.39482983722147347,-0.11813712825048826
-0.5947128938976113,0.18695807343942217,0.33513933517147304,0.9133727297509924,0.3906053758877132,-0.1147941500026846
-0.5934001099169968,0.1875059148670455,0.3349877613868134,0.9150634845287693,0.38738288444931446,-0.11221996309835536
-0.592069914790401,0.1880538746289458,0.3348363363551761,0.9162301849190317,0.385180699864855,-0.11026366897059746
-0.5907233066287978,0.18860171961010164,0.3346858105939798,0.9171118727231244,0.38341478194285167,-0.10908216122721005
-0.5893633731866289,0.1891503468338791,0.3345342483325066,0.9176546284422201,0.38224339139495117,-0.10862767894720463
-0.5879925619905167,0.18969893601326823,0.3343830623340247,0.9178538751427576,0.3817320532357267,-0.10874237176859533
-0.5866126284090865,0.19024545113985508,0.334229940687973,0.917417113349276,0.3825999190588834,-0.10937614945689808
-0.5852236884744711,0.1907933088220935,0.3340736872555066,0.9163110288643713,0.38502884318291075,-0.11012215171684024
-0.583827237337976,0.19135042857246243,0.3339128255364954,0.9145792638779979,0.38883578232734106,-0.11113732256206357
-0.5824241915134262,0.19192196494609573,0.33374664866428166,0.9122975055444063,0.3937626467211025,-0.11253550295193994
-0.5810164131480292,0.19250876840854317,0.333574993223287,0.909469076544551,0.39972289504287883,-0.11440107511619514
-0.5796061387316938,0.19311139940114821,0.33340115171205575,0.9060432685570456,0.40680251427967384,-0.11660750352443365
-0.578193146412836,0.19372954998615546,0.33322211424116804,0.901871388658291,0.4153288556534842,-0.11886942408009457
-0.5767776652464182,0.19436577983287617,0.33303798656655087,0.8971130183018766,0.4248256477943431,-0.12129056587143805
-0.5753605490903981,0.19502476465061486,0.3328483931621068,0.8918247405408912,0.43503786825281565,-0.12405920096960858
-0.5739413471755194,0.19570833315794164,0.33265327225679464,0.8860809252534165,0.44572895437408094,-0.12722536356653805
-0.5725223821144778,0.19641839676667372,0.3324521710245335,0.8797452906393132,0.4571040302878368,-0.13078275533328823
-0.5711042433655414,0.1971539302580385,0.33224395077063557,0.8728860123706599,0.46904672829545213,-0.13440675609127883
-0.569686249015966,0.197917523313538,0.33202852846855857,0.8656121660927243,0.4813551689750551,-0.1378868348075999
-0.568267692673478,0.19871000771915726,0.33180376046035703,0.8581510953970017,0.49354486432730005,-0.1413865777401555
-0.5668485570296337,0.19953057908718067,0.3315677077593476,0.8505259778069719,0.5056695936562697,-0.14458154490458802
-0.5654295885845377,0.20037964229608218,0.33132040630339255,0.8426578370158095,0.517841246521609,-0.14754054736506686
-0.5640124157271629,0.20126114793638902,0.3310639953394189,0.8345497210174618,0.5301104029931913,-0.15003240912573873
-0.5625964154227118,0.20217746196537062,0.33079846355169024,0.8264477567635496,0.5421485144028388,-0.15185220996512155
-0.5611817769351312,0.2031274391307709,0.33052257059329637,0.8186906272879599,0.5534725631517053,-0.1530156156381701
-0.5597682457363753,0.20410566440815672,0.33023789272982185,0.8112910659783485,0.5641714637032129,-0.15335372772348693
-0.5583552631622866,0.20510873046134848,0.3299453458629438,0.8042653706142951,0.5742760361856544,-0.15285368132152902
-0.5569429031319331,0.20614321935730895,0.32964772780690926,0.7976043147669598,0.5838699327260249,-0.15140428898692326
-0.5555311649446044,0.20721171510444827,0.32935080149197754,0.7914060213763842,0.592875083764793,-0.1489148897192345
-0.5541200004976945,0.2083104319176621,0.3290566942806806,0.7859851313210956,0.6009496141465284,-0.14521341053531778
-0.5527072200580547,0.20942947932481543,0.3287688350669136,0.7812407723771839,0.6082589635146586,-0.14029928324683033
-0.5512910133077608,0.21056605180843668,0.32848877183600306,0.7771651672386725,0.6148474505617291,-0.1340780197072902
-0.5498694822871841,0.2117218186795924,0.3282187739288445,0.7738385029701735,0.6205573279699071,-0.12681708884740195
-0.5484447281409734,0.2128983142659111,0.32796622179711993,0.7711079637856961,0.6255852181954188,-0.11847211892115171
-0.5470184615552229,0.21408982139471455,0.32773316764332805,0.768938828346368,0.6299544297981123,-0.10904354469224693
-0.5455903679125629,0.21529215666813578,0.327521610586275,0.7674124302441687,0.6335045661977059,-0.09874272891405864
-0.5441570275013079,0.21650383061824863,0.32733091208315457,0.7665493502148433,0.6361765563959748,-0.08764406869469635
-0.5427163231123416,0.21772616165694558,0.3271632152487517,0.7663768005228215,0.6378610038491849,-0.07615733312632125
-0.5412662802958914,0.21895661825283005,0.32702004896690356,0.7666343969182468,0.6388534556699611,-0.06432700552913363
-0.5398073601496669,0.22019149120318005,0.3269007799541264,0.7671725350375738,0.6393234223748778,-0.05207555171955771
-0.5383395123009536,0.22143052986553974,0.32680746182119397,0.7681526839513131,0.639029598935358,-0.0397822299891514
-0.5368618766742279,0.22267505257562514,0.3267429127057448,0.7695407879572552,0.6380030933463073,-0.027550472784865446
-0.5353725388961932,0.2239248984003543,0.32670679617630105,0.7711466533837077,0.6364618950241162,-0.01578274872823241
-0.5338683903021785,0.22517996201500778,0.3266954005697001,0.7728808588187434,0.6345347652392467,-0.004561773161358489
-0.532349148575443,0.22643919751424807,0.32670765240431154,0.7748118078160661,0.6321622179205413,0.006131288818951585
-0.5308130146473229,0.22769705417033353,0.32674376559080215,0.7768657818902076,0.629457951611139,0.01619395200762732
-0.5292592385941661,0.22895447093525217,0.3268025985397571,0.7787570482510783,0.6268051638380886,0.025548901838922417
-0.5276865928604471,0.230217951853331,0.3268825089313917,0.7804537863590176,0.6242831725779416,0.03409410203968866
-0.5260944064456758,0.2314880166949606,0.3269809092955445,0.7821347247965894,0.6217067848629254,0.04178451774003723
-0.5244833002930389,0.23276086057594117,0.32709504987751614,0.7838368739706028,0.6190812241675797,0.04835486415206356
-0.5228505934346384,0.2340367346722044,0.32722245697555646,0.7856867875730656,0.6162637855372634,0.05399276311134893
-0.521195918694557,0.235322877878117,0.32736114692195506,0.7875241674454949,0.6134887947811252,0.058627505211140886
-0.5195208692499189,0.23661809466774464,0.3275098763319763,0.7891426972653535,0.6110223651925939,0.0624937803882192
-0.5178271554903748,0.23791906478854016,0.3276665179013927,0.7905657453008647,0.6088504898128378,0.0656268497762594
-0.5161144609851154,0.23922990566981023,0.32782829192740376,0.7920660614218379,0.6066520438580207,0.06785758635984315
-0.514382522624836,0.24055239306844114,0.3279945030879662,0.7936163408459941,0.6044687540866024,0.0692143689937689
-0.5126323005661905,0.2418839933084032,0.3281629753821249,0.795162254595396,0.6023795081564576,0.06968441016433323
-0.5108629922778768,0.24322534433115203,0.3283311011260867,0.7966821055207008,0.6003548852043985,0.06979709560086553
-0.5090744762342607,0.24457326981213273,0.3284962086035209,0.7982969171835704,0.5982329900670087,0.06956523277251409
-0.5072693855510516,0.2459247663515005,0.32865805318662233,0.7997664450057315,0.5963296442102982,0.06902600146983501
-0.5054499713197803,0.24728124537506127,0.32881784622500204,0.8009702012258642,0.5947665362162422,0.06855292951823744
-0.5036169495809728,0.2486444371039265,0.32897454571250073,0.8022286487183122,0.5931098068690316,0.06819055778750345
-0.5017720562689174,0.25000899899543316,0.32912922916511,0.8036273998413752,0.5912577511249938,0.06780320021064978
-0.4999168990653877,0.25137206558209546,0.329280511111307,0.8051026940786074,0.5893088696506547,0.06726595081046711
-0.498050739252346,0.2527338346012737,0.32942736942694145,0.8065829844939039,0.5873118771501697,0.06699737370412955
-0.4961758863928325,0.2540898086014773,0.3295722911028066,0.8080995046024623,0.5852125417099947,0.06709300773242229
-0.49429564008453136,0.25543732499684035,0.32971634291712415,0.8093940542661731,0.5833727436685083,0.06750930945613462
-0.49241279429722623,0.25678200899211845,0.3298603120940664,0.8104556512636868,0.5818001163109945,0.06833931515070049
-0.4905286565374927,0.25812548664538604,0.3300047137168296,0.8114425896200246,0.5802574004466012,0.06973000055715775
-0.48864492067558946,0.2594637080179158,0.33015313297163124,0.81234600952472,0.5787580269073331,0.07164570538137097
-0.4867610605607169,0.2607975289456094,0.33030375950668434,0.8130234732766138,0.5774794860247757,0.07423122740324303
-0.48487827966880687,0.26212966682207706,0.3304589880650757,0.8136363192291426,0.5761566239594937,0.07771412161796118
-0.4829989225863337,0.2634538249432844,0.3306222289465086,0.814178377287868,0.5748034035894118,0.08194276770357393
-0.4811242243484269,0.26477021637966086,0.3307965660193689,0.8144324665423427,0.5737047932233992,0.08696302475335414
-0.47920543254889214,0.26611954293190976,0.33099522271752,0.814439375345422,0.5728613419609998,0.09229510698623862
-0.47736865985032095,0.2674126880158987,0.33119111647328775,0.8144425012938263,0.5717168178827916,0.09911252310495622
-0.4755365732937905,0.2686988546872834,0.3314016668255416,0.8144061931910246,0.5703996954856028,0.10670866826099568
-0.47370845300618825,0.2699823897661433,0.3316266053279086,0.8144257104749922,0.5687534320027983,0.11502302248829441
-0.47188517282130293,0.27125943729461244,0.33186885967234137,0.8144189495915963,0.5667743518068353,0.12445323892957769
-0.4700707259294546,0.27252503952660023,0.33213400302359514,0.8143985905609165,0.5644338924214386,0.13479360807685437
-0.46826738058263295,0.2737804000641049,0.3324239424072661,0.8142336523193527,0.5619170473301721,0.14585195010841806
-0.4664745987737044,0.2750263823076441,0.33273861170104224,0.813797917976017,0.5592737573418038,0.15794243586408613
-0.46469530564532513,0.2762586018648797,0.33308245218190335,0.8134095795660143,0.5559919274737394,0.17099073791956063
-0.46292913029010635,0.27747300693069665,0.33345402979025285,0.8129687434036105,0.5521630422653913,0.18492646377677294
-0.4611760608069386,0.2786694360879108,0.33385275546660237,0.8124587050211847,0.5477631140021443,0.19966577967687263
-0.459439792555765,0.27984486328491875,0.3342833234841795,0.8118805400332914,0.5426641727897628,0.21532669199533438
-0.45772137855075345,0.2809970638004874,0.33474749875186305,0.8112202569402065,0.5368821098383675,0.23168792559252768
-0.45602276313969836,0.282127950009439,0.33524614509775325,0.810364880514578,0.5306754543215797,0.24837939248089558
-0.454343409193245,0.28323248968515746,0.3357774696724402,0.8092646410027898,0.5240622290142214,0.26542328636212664
-0.4526844630245286,0.28430823090993984,0.33633982518975175,0.8080514702143994,0.5166476263898864,0.28306898740420844
-0.45104470845096906,0.2853572214528105,0.3369319290171204,0.80675855045505,0.5084579411605601,0.30101688214854483
-0.44942470197069,0.2863800243722643,0.3375575142656782,0.8052962279795441,0.4996389407205933,0.31915343350420294
-0.4478244257571239,0.2873685530610095,0.33821610084023856,0.8035876886327266,0.4901590629011673,0.33762541334111906
-0.446243865355986,0.288322998022912,0.3389052085234879,0.8014642350916944,0.4804355092397286,0.35614154676258697
-0.444679584752218,0.2892468048246882,0.33961979007503446,0.7984621702147869,0.4710404337147775,0.3749387583882027
-0.443209875271056,0.29008476081045403,0.3403400243136284,0.7940784637871403,0.46108871076557684,0.3960260018660311
-0.4417122673103323,0.290923197622175,0.3410944767478787,0.7887364192714539,0.45207224826669895,0.4165639725923709
-0.44023841067622804,0.29173121318204426,0.34187249229085864,0.7818365214685817,0.4437141602550251,0.4380061616999078
-0.43879064331212714,0.29250704893268403,0.34267532130247025,0.7732051519787811,0.4359868768482109,0.4605097568669018
-0.4373755129652143,0.2932533887433072,0.3435059456809307,0.7624259372893506,0.42896082990994633,0.4844577345356613
-0.43599764737385055,0.29397814392694044,0.34436488928841763,0.7495856801294779,0.4224052337152271,0.5096029107793758
-0.4346615041447841,0.294686208150851,0.3452558795229789,0.7348746958323195,0.41628016060388384,0.53541573502556
-0.4333733947348005,0.2953801274479635,0.34618439509030047,0.7181477272713163,0.41053014840933716,0.5618975343085701
-0.43213600287871107,0.29606105336484134,0.34715051441420913,0.6997380218321885,0.4046510306472014,0.5887480311631906
-0.4309530053098765,0.2967318359626031,0.3481563045574806,0.6795169717822266,0.39856550316771755,0.6159563497071663
-0.42982593646651107,0.29739244439580137,0.3492044571683215,0.6575348831684723,0.39210087219236456,0.6433543218496403
-0.42875701511041153,0.2980411461092338,0.3502975720129206,0.634234201558019,0.38511333836135975,0.6703989067638989
-0.42774765948775967,0.29867546831720576,0.3514341396087889,0.6099555860528051,0.3776397228250567,0.6966652157152625
-0.4267956059415644,0.2992946177934933,0.3526097550138756,0.585207087610255,0.36971573145268943,0.7216944939010731
-0.42589950128297605,0.29990181606051936,0.3538207996183507,0.5602329448606462,0.3613086977168266,0.7453825007651701
-0.42505614617902454,0.3004943514772881,0.35506851908107234,0.5356154387017847,0.35203429289501714,0.7675857987549014
-0.4242609556378104,0.3010675039922298,0.3563517229965559,0.5120315754620307,0.3417096098792277,0.7880724638293466
-0.4235067624471644,0.30161699681304016,0.35766343872477174,0.49008586459603426,0.3303374723191614,0.8066554405103489
-0.42278661451276983,0.3021427072202222,0.35899717637419176,0.469966996175455,0.31800064543478246,0.8234115690278353
-0.42209256175523974,0.30264423305630317,0.3603480631735435,0.45209630945758067,0.30489969521717736,0.8382392873346535
-0.42142050040536655,0.3031215907276654,0.3617160660275098,0.4362723733379024,0.29128256200059605,0.8513641320472004
-0.42076828154522117,0.3035742544899972,0.36309911593362226,0.42221775726427574,0.27718906828487466,0.8630749595916268
-0.4201330304376257,0.30400168958814855,0.3644916587372624,0.4096571414513727,0.26226711479537906,0.8737259221030343
-0.41951308401825993,0.3044048005020358,0.36589405470965614,0.3984711116505307,0.24678573308771654,0.8833558598460468
-0.4189077133878805,0.3047852338810219,0.3673068786016782,0.38846153527092037,0.23117972653238886,0.8919941533751045
-0.41831606422692336,0.3051453234089253,0.3687293811477789,0.3792275687277775,0.21553051083229863,0.8998516822327929
-0.4177369239476754,0.3054828247398602,0.3701620188923274,0.3705022216971553,0.19941743345208882,0.9071718640659298
-0.4171691395778667,0.3057952066728187,0.37160534058985206,0.3624509242158136,0.1829991523328617,0.9138602944545499
-0.4166111462155959,0.3060827982610985,0.3730567765478924,0.3549841020610293,0.16631184785851041,0.9199601385635208
-0.4160611039423404,0.3063448126065216,0.3745131297086883,0.3478087574606388,0.14885856989257917,0.9256728333505434
-0.41551981503169166,0.3065770381974716,0.3759786994854457,0.34082952348417334,0.1307379962275587,0.9309902320991098
-0.4149885059619463,0.3067775002533365,0.3774544866280061,0.33382482482749865,0.11200378263758767,0.9359573382391752
-0.41446645955260386,0.3069474504078719,0.37893438673185686,0.32658457495437904,0.09233075187330247,0.9406474087884249
-0.4139547222793935,0.30708523658610626,0.3804198311594947,0.319153269542327,0.0720924965996867,0.9449570691171462
-0.4134549965144116,0.30718995768208557,0.38191231411998194,0.3115588550519915,0.051571429920089784,0.9488263631743635
-0.41296809068116613,0.30726178014309125,0.3834091997074689,0.30356131553056503,0.03044034497173926,0.9523255289612655
-0.4124924793035472,0.3073013065236278,0.3849115803549877,0.2951350102361197,0.008466230914999854,0.9554180491633071
-0.4120297966595003,0.3073032363881828,0.38642138629092815,0.2867098500423208,-0.013679464765746567,0.9579197952503292
-0.4115797506257003,0.3072709213348652,0.38793368145907486,0.2780360408446053,-0.03621866912529564,0.9598875809167704
-0.4111420179721102,0.3072047631706589,0.38945088186242177,0.26883795874965905,-0.05935793916436214,0.9613546624391419
-0.41071885552009413,0.30709897185419516,0.39097663578750785,0.2594429348605103,-0.08245451747909256,0.9622321009497943
-0.4103110261225157,0.3069557542528177,0.39250467661838084,0.24974705937113006,-0.10558330840675982,0.962537568784386
-0.4099174851154085,0.30677889012400494,0.39403196771985377,0.23949682840292105,-0.12913272976100268,0.9622712753113924
-0.4095414816810108,0.3065601544457423,0.3955659474195677,0.22892591505900806,-0.15262018844018232,0.9614052233553129
-0.40918326008296213,0.3062994955087535,0.39710144736379094,0.21808162059090294,-0.17598391049815393,0.9599323257429262
-0.4088412479579468,0.30600075172879004,0.3986324536951883,0.20682461368846275,-0.19937539979784571,0.9578481242493861
-0.40851660459303984,0.3056592356511799,0.400165925413313,0.19544188755973455,-0.2222015365072832,0.955211466514557
-0.40821064343003205,0.30527462331436794,0.4017004087558001,0.183964268124756,-0.24423396749185217,0.9521065681826336
-0.40792170737182065,0.30485349672692963,0.40322762437302073,0.17227580191462652,-0.2655896378406027,0.9485690235013844
-0.40765068749991457,0.30439273729696564,0.4047536225076372,0.1606817987177848,-0.2857011153891353,0.94475194216589
-0.40739861722173465,0.3038916995910681,0.4062820410473765,0.1491390163324551,-0.3044265733954379,0.9407879756980845
-0.40716438596189586,0.30335782394805016,0.4078062928319103,0.13762851472807366,-0.3218096468836072,0.9367480681092395
-0.40694821746925164,0.30279210813394153,0.40932967995770303,0.12634719522068028,-0.3375762988315428,0.9327800537785229
-0.40675218761857335,0.3021916351024285,0.41085872205547447,0.11537131404082987,-0.3515132647477931,0.929046761257387
-0.40657502702907605,0.30156477984582675,0.412387062574344,0.10463692375650299,-0.36367168108830245,0.9256316883951109
-0.4064149072115593,0.30091588244349904,0.4139144385119405,0.09420188116222805,-0.37394858721921553,0.9226529465092767
-0.40627181840287646,0.30024376170303924,0.415451164834303,0.08428018537711626,-0.38205487538430677,0.9202884996281767
-0.4061458327976961,0.2995529204809694,0.41699519104675015,0.07466324614618658,-0.3884040168732131,0.9184594271668547
-0.40603353762535677,0.298854700107298,0.4185442099063149,0.06551878525551015,-0.3930895971420236,0.9171629393937393
-0.40593577642574,0.29814581233440296,0.4201090797555386,0.056984001307564605,-0.39615632896291847,0.9164131091476176
-0.4058521487597966,0.29742794072390977,0.42168863249643546,0.04878787002264827,-0.3979235697157503,0.9161203940549122
-0.4057786480960467,0.2967115618690485,0.42327795261672313,0.040874824428212775,-0.3985056824075744,0.9162545878831037
-0.40571501820024264,0.29599241255178804,0.4248867029868812,0.03324461518303487,-0.3978143588182384,0.9168634202973558
-0.4056630381736699,0.295266524221452,0.42651612179937953,0.025628761872023814,-0.39613117101899953,0.9178361846822248
-0.40562011600214026,0.29454488483357066,0.4281590839908229,0.018003214151808642,-0.39372131917282677,0.9190535387609434
-0.4055874004500881,0.2938241920707879,0.4298244905193457,0.01043065179212665,-0.39056977862834036,0.9205142310281795
-0.4055682854417861,0.29310048251378334,0.43151732208481397,0.0028095758181568707,-0.3870164778180371,0.9220685181596011
-0.40556161372983923,0.29238256403166324,0.43322833645935466,-0.004948551637067175,-0.38336023337660563,0.9235856448116384
-0.40556823018970467,0.2916668213956237,0.4349637878414087,-0.012736240283409918,-0.3794666396160636,0.9251177533708539
-0.40559158108970544,0.29094629265279964,0.4367296400423383,-0.020610508433770276,-0.37553019222047296,0.9265809633663731
-0.4056313348159036,0.29023034659904007,0.4385170294353396,-0.02853489604168362,-0.3718845372414976,0.9278403152852152
-0.4056881618706258,0.2895149045792639,0.44032895643269365,-0.036466057403946456,-0.3683301482203687,0.9289796168750817
-0.4057647012699255,0.28879309455512,0.4421709726319617,-0.044350921740716524,-0.3649830067288859,0.9299572036066449
-0.40586021515416776,0.2880716439296735,0.4440350349912631,-0.05223126405959755,-0.3622635070382582,0.9306111145495085
-0.4059740402612994,0.28734997922789884,0.4459221351584734,-0.059940580204472536,-0.3599301465743959,0.931051779672691
-0.4061077225679093,0.2866230782306394,0.44783674252502215,-0.06735300257477186,-0.35809974921388016,0.9312508484061204
-0.40626129342200545,0.28589869457791184,0.4497740555388382,-0.0745060752841451,-0.35748068447601955,0.930943824820977
-0.4064338240206916,0.285175269673696,0.451734056235764,-0.08122586292604538,-0.3578318887337915,0.9302465794600521
-0.40662486435164835,0.28444648723350613,0.4537175037172302,-0.08738176569161957,-0.35911169722610736,0.9291949289250344
-0.4068322777614185,0.28371259089728285,0.4557190803197182,-0.09303893662175491,-0.36208949645631044,0.9274885189738516
-0.40705243344453257,0.28296452060163774,0.45773413963723475,-0.09810080278378076,-0.3660721570425312,0.9254012147881622
-0.4072837380120706,0.28219826135259696,0.4597608971186666,-0.10250753694665347,-0.37095945351166476,0.9229741538740169
-0.40752450162785825,0.2814128789232112,0.4617972973903122,-0.1064654410477323,-0.3773944516244399,0.91991224458945
-0.4077736910631927,0.28060091329462,0.4638401305302201,-0.11004674123918631,-0.38461756810611086,0.9164927937778762
-0.4080305082986837,0.2797612425139653,0.46588669699418933,-0.11317950340479639,-0.39216221218951286,0.9129070047598886
-0.4082942575506527,0.27889285279944837,0.46793692838804685,-0.11603433541431325,-0.4005038593962946,0.9089184185688128
-0.4085639075178117,0.27798921965794,0.46998646128994753,-0.11871695146407449,-0.40880847779958446,0.9048656883285293
-0.4088377631093445,0.277055222529446,0.4720299373562368,-0.12115395658558643,-0.41698535715264123,0.9008023816153807
-0.4091162201237427,0.2760883165318491,0.47407015979858086,-0.12349055668459798,-0.4251938183788701,0.8966383324519003
-0.40939944204078554,0.27508818195820767,0.47610389905455597,-0.1258276519416007,-0.43280438263620974,0.8926633006782304
-0.4096867268480128,0.27406433681923315,0.4781273569746747,-0.12811233649338233,-0.43964005490963703,0.8889903550417505
-0.4099777689204571,0.2730164498475558,0.4801459088339274,-0.13045701848966162,-0.4459959883693094,0.8854764506666855
-0.4102738165996868,0.2719449740254576,0.48216144096550356,-0.13301327162125778,-0.4511741027654275,0.8824677889681984
-0.4105749585379648,0.270863720351747,0.48417040505161235,-0.13570429706377113,-0.4550801717467875,0.8800490787685322
-0.41088287865719725,0.2697730129493139,0.4861812436186151,-0.1386566686588931,-0.45792815772178713,0.8781094069658677
-0.41120037975112894,0.2686753182895103,0.4881965446258333,-0.14190242958926377,-0.45932246143207217,0.8768617775343196
-0.41152762367851076,0.26758273818244016,0.4902131335366613,-0.14530364091300524,-0.4592199071505358,0.8763583335679976
-0.41186509137939264,0.2664913832194813,0.49223873869529056,-0.14889139615029826,-0.45823270639238495,0.8762728678583659
-0.4122139261298418,0.2654008585840037,0.49427367793149973,-0.15262223222811447,-0.4562053997397122,0.8766887061426291
-0.41257374249777584,0.2643209425355219,0.49631593221296827,-0.15630269157906548,-0.4533141350185199,0.877539607993594
-0.4129453499813191,0.26324369343956666,0.49837380001825093,-0.1599282970966376,-0.4501748338020036,0.8785018832074909
-0.4133309129157559,0.2621718800630205,0.5004518660738996,-0.16344637218928773,-0.4464319005816223,0.8797635145658413
-0.41372945727583343,0.2611121046247066,0.5025482031320566,-0.16665256988756771,-0.4423738332966329,0.8812107083804146
-0.41414055215138973,0.26005663017380237,0.5046666334172358,-0.169611431140883,-0.4387576409887182,0.882453225332854
-0.4145635685826733,0.2590034882157355,0.5068050039492176,-0.17237994303604479,-0.4350642822889885,0.8837444345031301
-0.41499643490820515,0.25795807851737107,0.5089598616129393,-0.17477205459470363,-0.4314235289239435,0.8850584543540372
-0.41543876674453234,0.2569148953607543,0.5111345073113364,-0.17676701810680615,-0.4286034459209587,0.8860318885087082
-0.41588937149716665,0.25587405476667335,0.5133278482523121,-0.17847139621740185,-0.42594818891117137,0.8869701804996063
-0.41634751983477497,0.2548358593919889,0.5155391516779831,-0.1796935367688609,-0.42383989071619005,0.8877330566567778
-0.4168107363247929,0.2537995903456817,0.517765052937952,-0.18046550889828586,-0.422711611207304,0.8881143472822673
-0.4172762091850204,0.2527642312662296,0.5200024023843237,-0.18091175926136147,-0.4220922131724706,0.8883181293546388
-0.41774162744895377,0.251724410165537,0.5222472024247644,-0.18095646436195242,-0.421908902430854,0.8883961031292368
-0.4182060442227002,0.25067972488282886,0.5244949760775922,-0.18065137224196376,-0.4226193267177948,0.888120479660104
-0.4186678139389933,0.24963365178091398,0.5267413392464976,-0.1801528058978876,-0.4238001212538699,0.8876589568929742
-0.41912681133844765,0.24857800144568787,0.5289892453599975,-0.17938559837418597,-0.42547640438924733,0.8870121963107007
-0.4195830515452562,0.2475141218112409,0.5312337010007638,-0.17839374356919438,-0.4279632533302733,0.8860153080248314
-0.4200334645114407,0.24644828841081917,0.533465163451933,-0.1772511649744193,-0.43099341043177747,0.884774945779771
-0.42047724083518184,0.2453719867918738,0.5356861188595518,-0.17595299445672957,-0.4342580758979476,0.8834367364215292
-0.42091582585622744,0.2442820916156963,0.5378945080917457,-0.1746011286872327,-0.43765020592634535,0.8820298992175786
