-0.683804654926474,0.07019084585134175,0.3637025150589744,-0.48395947037554077,-0.45068648504759795,-0.7501099407615308
-0.6839748759941299,0.06999183616959058,0.36339493759393754,-0.43369081896854283,-0.4823725246549704,-0.7610709697527457
-0.6841063061898074,0.06979851653784175,0.36311051425556967,-0.3793162639647063,-0.5132722470619832,-0.7698511364463909
-0.6842024498307925,0.06961221450002289,0.3628499107437466,-0.3216479895364367,-0.5429391821294489,-0.7757316645179397
-0.6842675045987406,0.06943479265311002,0.36261385507747257,-0.26169233497493705,-0.5710096374194388,-0.7781163896162876
-0.6843063067141169,0.0692690934629828,0.36240319998256565,-0.2004982006033999,-0.5971338103251004,-0.7766799109809819
-0.6843239226864372,0.0691172986263571,0.3622189758773979,-0.1390878617041969,-0.6213802531394386,-0.7710649439151812
-0.6843249623321871,0.06898045089710236,0.3620616300469269,-0.07785089849240769,-0.6442481870291421,-0.7608439466234771
-0.6843136912924789,0.06885983083259775,0.36193110734390227,-0.017150936686913767,-0.6657517508562124,-0.74597617361592
-0.6842937878669338,0.06875550756649854,0.3618264849508346,0.04310048299274467,-0.6861644552556928,-0.7261684988413161
-0.6842686339574633,0.06866542395072078,0.36174536242664684,0.10325902758384356,-0.7026507777260816,-0.7040024558077702
-0.6842412583025071,0.0685928231692874,0.36168680814532894,0.16427700860629865,-0.7152535507136536,-0.6792830210117701
-0.6842146235325475,0.06853703256957408,0.3616476315365209,0.22860516069624162,-0.7231725210276466,-0.6517370522945305
-0.6841907621044713,0.06849750849616834,0.3616240019812776,0.30074262471508056,-0.7217647878010844,-0.62338548649286
-0.6841708448810608,0.06847248504538347,0.3616123367464821,0.389466225933928,-0.7028948252489248,-0.5951931816604303
-0.6841553190680345,0.06846002686840533,0.36160906765983164,0.6493281596944445,-0.49020355255586673,-0.5814408121979688
-0.6841440215457301,0.06845808168949423,0.3616108907261889,0.8645775528687879,-0.01718638365455389,-0.5022054194174898
-0.6841364241257553,0.06846444501096369,0.3616152394618423,0.7040812012105186,0.6778058061442706,-0.21177570979474644
-0.6841319168776626,0.06847751120568812,0.3616202169134424,0.3880148241469097,0.921458692771337,-0.01893076222400009
-0.6841297829175375,0.06849577852448654,0.36162468072210635,0.21928031652666974,0.9749522198818106,0.037206339936804306
-0.6841291419846522,0.06851750323213633,0.3616279981775634,0.13603912499880289,0.9897176148056935,0.04418596398053225
-0.6841291141603854,0.06854116620028274,0.3616299525410062,0.09584136536015594,0.9947815332720551,0.034987622765776175
-0.6841289066825362,0.06856559142351966,0.36163067030344764,0.07945818371490758,0.9965945606765451,0.022038118582409883
-0.6841280140270359,0.06858991074615031,0.36163041430068055,0.07619737263530516,0.997034956171996,0.010735761481259846
-0.6841262621630355,0.0686135094434312,0.36162947798225653,0.07871537244071608,0.9968891958015329,0.003977616835812032
-0.6841239579382357,0.068640390319797,0.3616295513007632,0.08118705826026577,0.996689642448295,0.004291643896468791
-0.6841215402859135,0.06866909167779797,0.3616297005945555,0.08248800661219242,0.996579745292538,0.0049537902465552645
-0.6841190043243924,0.06869925961793584,0.3616298788513355,0.08332336734446807,0.9965059119150484,0.005760553162372159
-0.6841163600091985,0.06873048234458023,0.3616300293001873,0.08399579743637259,0.9964434540020903,0.006719299770956495
-0.6841136399392191,0.0687624805445283,0.36163015832795853,0.08455645837598211,0.9963871316886833,0.007930268098198237
-0.6841108657230306,0.06879504202413567,0.36163027803704856,0.08501397792594845,0.9963346084369131,0.009485335422069264
-0.6841080702621126,0.06882782330298992,0.3616304140951765,0.08539630685651749,0.996282076983714,0.011379536734187545
-0.6841052970046857,0.06886035290237527,0.36163060610837255,0.08572386088253321,0.9962268757182039,0.013543698613682272
-0.6841025760949809,0.06889218303906638,0.3616309112244937,0.0860100227010256,0.9961686284825908,0.015822124449105822
-0.7311298732931156,0.18824658763507152,0.611086003745509,0.24907881660173134,0.9684022974461627,0.012519321917542266
-0.7311218239605721,0.18827768364953668,0.6110864389100897,0.24946847689641502,0.9682882900672571,0.01353759039157043
-0.7311141186525524,0.18830682113583974,0.6110872974429733,0.2481349352734536,0.9686774122186954,0.009650127156195358
-0.7311070061546452,0.1883330086945883,0.6110886087782632,0.24300902469505178,0.9700105498209505,-0.005113428675253211
-0.7311006546011883,0.1883556237825914,0.6110903408467838,0.23001755830698087,0.9722943629970012,-0.04166046752918167
-0.7310951663313953,0.18837475581361296,0.6110921396192629,0.20214150391716657,0.9723912376859402,-0.11659371023220597
-0.7310906880161149,0.18839057150203187,0.6110934583174785,0.14759377436154333,0.9564744627093977,-0.25173930951379586
-0.7310875653604268,0.18840289253694248,0.6110934745471416,0.055410994085376176,0.89011124885964,-0.45236222917923
-0.7310860903091467,0.18841235700681558,0.611090972701576,-0.058809917691791024,0.7489997947226721,-0.6599550750516885
-0.7310865046280188,0.1884202672573957,0.611084435911754,-0.15388882729243009,0.5822617289206217,-0.7983041449653941
-0.7310891999275332,0.1884276990068774,0.611072117132262,-0.21336089417135623,0.45192343511840055,-0.8661653061795906
-0.7310946244844249,0.1884354540345392,0.6110523481372897,-0.24687299523181108,0.36831410555978034,-0.8963249655515421
-0.731103099655488,0.1884442218931887,0.6110238814022162,-0.2652199336846388,0.3196248530684297,-0.9096693575565248
-0.7311148168445585,0.18845470135977566,0.6109858077460631,-0.2749945647236784,0.2936322312142946,-0.9155097499014142
-0.7311298962223324,0.1884672076513842,0.610937691801193,-0.2797865399876853,0.28197059294005833,-0.9177211323483574
-0.7311480589887075,0.1884821525908884,0.6108801536319571,-0.28125176019765075,0.28023948115791963,-0.9178035087021966
-0.731168715885709,0.18849977665500794,0.6108146708388186,-0.2804416939066677,0.2852196708971527,-0.916516336816796
-0.7311911314445537,0.18851995980884312,0.610743243430205,-0.2778877396914545,0.29511834261607844,-0.9141572993641266
-0.7312143355912886,0.18854240675202444,0.6106685597429011,-0.27366408346109156,0.3095047791221036,-0.9106672065710825
-0.7312372658520894,0.18856679228797701,0.6105935406139168,-0.26763672808687244,0.32850136545478104,-0.9057910546441148
-0.7312588982812661,0.1885922828410539,0.6105213171193148,-0.259677178855241,0.3521116394679897,-0.8992136320880304
-0.731278381554823,0.18861784035664292,0.6104547026098167,-0.24936437255686764,0.38105277949977556,-0.8902899465538264
-0.731294965924437,0.18864311415363988,0.6103957980213436,-0.23545777985158625,0.41783575148150126,-0.8774810075957492
-0.7313080879537467,0.18866807437996008,0.6103460146302465,-0.21653242541777523,0.4646670823400475,-0.8586024757315128
-0.7313175644511285,0.18869248076279715,0.6103059304523502,-0.19115860053015998,0.522707007280781,-0.8308042934307213
-0.7313234818513221,0.18871609174223014,0.6102754440566556,-0.15772248396992744,0.5922074726068968,-0.7901986632732984
-0.7313271714043231,0.1887329310236171,0.6102550011179376,-0.09857114406757732,0.6990262616835825,-0.7082697332470762
-0.7313272066479711,0.18875364161510733,0.6102413489557682,-0.03590751260864507,0.7923944901273061,-0.6089512480931019
-0.7313247725870163,0.18877706517800252,0.6102322312339226,0.02643719335000178,0.8667246576286266,-0.498085778422065
-0.7313209110395884,0.1888023866852444,0.6102255582622894,0.08913678623638825,0.9230748183444601,-0.37414905195361714
-0.7313164498039609,0.18882873006741985,0.6102197826598613,0.15883568062270767,0.9623268958235227,-0.22067662344658084
-0.7313119941521556,0.1888549429552358,0.6102140938475423,0.24800677938281504,0.9687480234701626,0.004461435062480293
-0.7313077365003827,0.18887970276626448,0.6102088660153806,0.3574580196619306,0.8640773216575313,0.3543926443600631
-0.7313034247904658,0.18890162617342343,0.6102056524327323,0.42080509367598196,0.5386769359137221,0.7298974118675526
-0.731298496820368,0.18891901372373698,0.6102070053593025,0.3929481373723355,0.15990135929695423,0.9055513881777215
-0.7312922313088847,0.18892985405696178,0.6102160961777678,0.3434813150578066,-0.08143855324782884,0.9356219045378642
-0.7312835606868942,0.18893192740398207,0.610237120812693,0.30807367482286935,-0.20984608732313562,0.9279306172965218
-0.7312708933022914,0.18892282841258834,0.6102757215850588,0.2867321125885933,-0.2778077036373975,0.9168465386367546
-0.7312527246099788,0.18889985421653294,0.6103375077590509,0.2747182463470043,-0.3138930364619363,0.9088459972870719
-0.7312276191292564,0.18886028996869547,0.6104279087948146,0.2688654089539589,-0.3313175059850784,0.904400410269615
-0.7311940718757,0.1888015490792887,0.6105524217243108,0.26733672383508555,-0.3364672638849719,0.9029511927135839
-0.7311486802116383,0.18873300973414925,0.6107136122690291,0.27218736357871154,-0.323763928412474,0.9061406942451005
-0.7310911542146649,0.18864859651591737,0.6109160498245799,0.27855210179579243,-0.3065676980949579,0.9101785391174114
-0.7310198796134079,0.18854985931867174,0.6111627335319944,0.28628029743390104,-0.2850258457489485,0.9147698391159679
-0.7309330932565575,0.1884391522572333,0.6114564837409746,0.29529591910683817,-0.2589965783561731,0.9196309545457039
-0.7308289580246303,0.18832022887075184,0.6117993893819638,0.30550633247917003,-0.22832099512738638,0.9244108415629746
-0.7307054851245719,0.18819888230606463,0.6121925829531325,0.3166797076737262,-0.1932165394058517,0.9286448899594021
-0.7305610193051193,0.18808238260927962,0.6126353728101338,0.3285356352395656,-0.1540537810154721,0.9318432104879941
-0.7303943802608147,0.18797832902716421,0.6131255963215309,0.34076843430606985,-0.11129744917684876,0.9335361546224744
-0.7302045376863598,0.18789468762611272,0.613660474758597,0.35297827861787345,-0.06586458234940852,0.9333103404633963
-0.7299905945187244,0.18783910781631846,0.6142371057030538,0.3647580946934765,-0.0189541550549847,0.9309093792425429
-0.7277890859874684,0.18858702349687823,0.6192705599055643,0.4168000156430407,0.2342907522168839,0.878285597277792
-0.7273687764585723,0.18885330533845746,0.6201423994211491,0.4204780783104528,0.2501331098891126,0.8721419683730107
-0.7269193233868003,0.18914779838832246,0.6210639593582659,0.42382731477684193,0.261366104967133,0.8672128726116567
-0.7264396275670397,0.18946647611644113,0.6220388821420304,0.42705891939812307,0.2688783344759652,0.8633221418520078
-0.7259291762265936,0.18980550761124582,0.6230687335237685,0.4303497874708964,0.27356944444993553,0.8602085906843223
-0.725387595207382,0.19016140644070684,0.6241541133941356,0.43385642427888593,0.27632663650874373,0.8575617721585449
-0.7248143808682183,0.19053282730496895,0.6252942562978043,0.4377064603354038,0.27787263026576453,0.8551022488157994
-0.7242092195786879,0.19091934649075964,0.6264869683034765,0.44200934515728346,0.27878086475999025,0.8525895661086298
-0.7235717499871934,0.19132129999626513,0.6277292555825773,0.44685459458718413,0.2794776727208552,0.8498312783999292
-0.7229018317830743,0.1917396669879587,0.6290169130211362,0.45232005627129407,0.28021369878074226,0.8466917087761926
-0.7221988167623115,0.19217523062302977,0.6303466220575621,0.4584623381878969,0.28104726382769096,0.8431042165463618
-0.7214618639397494,0.19262897657947786,0.6317147656735487,0.46531298207369565,0.28193489937096433,0.8390450174039344
-0.7206900318471511,0.1931011415343401,0.633118039698047,0.4728988482814555,0.2827766873857871,0.8345082530240152
-0.7198824771138356,0.19359090889492914,0.634552795227225,0.48122017562083397,0.28350647181380567,0.8294885309726359
-0.7190385438948256,0.1940954299870591,0.6360157704710145,0.49027166074203304,0.2840754110807838,0.8239750357216732
-0.7181574551947393,0.19461153576586493,0.6375037437977374,0.500021902290731,0.28454137098938326,0.81793294677806
-0.7172380678753633,0.1951379747146461,0.639013534991795,0.510450072603997,0.2849937036168766,0.8113071627178636
-0.716279796712593,0.19567348085193276,0.6405409998805695,0.5215403886527197,0.28552331949625165,0.804034860579945
-0.6712288840777692,0.21857582345236548,0.6769476488662088,0.844717459255794,0.4646190799389401,0.26567183626633933
-0.6691239818813287,0.21974935105411675,0.6775854275803934,0.8509249755907113,0.4680940925956886,0.238358147318203
-0.6669902228478554,0.22093893575465745,0.6781571864903134,0.8569851221179884,0.4703485110773472,0.2105914969692252
-0.6648270743384769,0.22214302895622035,0.6786617193663204,0.8629126793930375,0.471262223087784,0.18246540722309154
-0.6626347793390316,0.22335598815883734,0.6790977602956441,0.8687529776315344,0.47064679665804876,0.15414232595838206
-0.6604144214687143,0.22457192056648229,0.6794622419103841,0.8744448594254636,0.46857771768259626,0.1256228892986875
-0.658165631591121,0.22579059307013627,0.6797516437994511,0.879909184219829,0.4651357836134089,0.09699757897976036
-0.6558874335158865,0.22700819848386833,0.6799654691364031,0.8851022146447057,0.4603102668012032,0.06861871398126324
-0.6535779700582558,0.22821951871011842,0.6801059686370613,0.8900487568449227,0.45403214703019557,0.040841399363371444
-0.6512363975409462,0.2294184484010537,0.6801737733757358,0.8946511018719295,0.4465535524787482,0.013759748833186343
-0.6488622068312638,0.23060380456836954,0.6801674011546526,0.8988313895690734,0.4381162575467559,-0.01250111989196097
-0.6464542415063927,0.23177487351382114,0.6800873991332402,0.9025522282155991,0.4289315239596832,-0.037646023650323025
-0.6440107195024131,0.23292685402264712,0.6799391502665405,0.9058049717587976,0.4192167293009391,-0.061438481518241064
-0.6415307646838246,0.23405849273484441,0.6797247237075124,0.9085305639741321,0.4093476017014047,-0.08370636359413494
-0.6390142425549354,0.23517235392249186,0.6794449042303947,0.9107469559497153,0.3995889832664115,-0.10425270586628858
-0.636460884235373,0.23626820448169872,0.6791037668675701,0.912444395397862,0.3902761577018141,-0.12300303263147082
-0.6338696075288028,0.2373483859280472,0.6787077242685551,0.9136022489522913,0.38178033799898764,-0.13990962878477867
-0.6312404167481155,0.23841768657671225,0.6782602217783835,0.9142992395385671,0.37425694170537466,-0.15488267225399316
-0.6285738896723088,0.23947971549478236,0.6777649692144723,0.9146503804305313,0.36770916486855454,-0.1679424057525512
-0.6258703833013106,0.24053630013445437,0.6772277310309672,0.9146271165562462,0.3623752640975813,-0.1792802432791052
-0.6231296131133998,0.2415950467408136,0.6766517433195111,0.9143046680667081,0.3582804474926072,-0.1888970484044786
-0.6203518190224018,0.24265969550843974,0.6760413209325873,0.9138126722512254,0.35526595310595016,-0.19680574838351475
-0.6175366609821016,0.24373356532314672,0.6754023390405586,0.9131985460125198,0.3532767050016178,-0.20313538653769642
-0.6146844700070544,0.24481938211960685,0.6747384162295883,0.9125267582426673,0.35217655415116694,-0.2080062263427202
-0.6117949616722855,0.24592389296190115,0.6740526094137295,0.9118651178940411,0.3517601603353823,-0.21158165414069519
-0.6088681204670919,0.2470475658930446,0.6733490321095673,0.9112776824425617,0.3518634351935854,-0.2139278113193406
-0.6059034723162061,0.24819089020983204,0.6726321504020591,0.9108809668546485,0.3521777390974531,-0.2150969648929222
-0.60290143095189,0.24935511020679368,0.6719032327571518,0.9107064647518043,0.3525390729904867,-0.21524390136372973
-0.5998621780596308,0.2505401418263028,0.671166124337749,0.9107803158729513,0.3528051854889988,-0.2144940962134859
-0.5967861046402934,0.2517421940238839,0.6704260625212842,0.9112031614206071,0.3527181932193903,-0.21283485332327398
-0.5936739175503766,0.25295923005977844,0.6696873194150985,0.9119794180268955,0.352168595382717,-0.21040632481341698
-0.5905272553892016,0.25418863672257774,0.6689522968258653,0.9130598312379233,0.35112113835275893,-0.20745045379954613
-0.5873479817692979,0.25542505345459526,0.6682246348795865,0.9144538343259033,0.3494966732377705,-0.20402514620110962
-0.5841378827209694,0.2566628682730754,0.6675082814953489,0.9161716805233387,0.3471787818585649,-0.20024071822245426
-0.5808994968149515,0.2578993387265475,0.6668035079984227,0.9180945412049697,0.3443350212358491,-0.19630539106235437
-0.5776353233373078,0.25912960774996346,0.6661128672757068,0.9201971377847571,0.340926717493686,-0.19236995844393465
-0.5743479970234622,0.2603489608548232,0.6654373412123615,0.9224324040308497,0.3370243788341103,-0.18850206382252047
-0.5710402619464067,0.2615556756236625,0.6647764117255136,0.9247173708736708,0.3327072339770927,-0.1849423706558293
-0.5677148806768598,0.26274807321491744,0.6641290197699787,0.92697015495447,0.32813270480305284,-0.1818110553908049
-0.5643747759965101,0.2639228971208755,0.6634930517791846,0.929190379529339,0.3232389565508162,-0.1792255996169699
-0.5610225217115157,0.2650801660262581,0.6628658426372536,0.9313138851094179,0.3181594276563939,-0.1772823341333185
-0.557660715875874,0.2662186836850232,0.6622451356390923,0.9332934715539786,0.31295732460452247,-0.17612781986699996
-0.5542919241084798,0.2673370734760956,0.6616286350071315,0.9351102787169179,0.3077008658434649,-0.17575250722863087
-0.5509183695372349,0.26843665536354594,0.6610129176114755,0.9367817371382203,0.30229870037389767,-0.17622563013520703
-0.5475425796999279,0.2695152850273787,0.6603959437254833,0.938245297194081,0.2968893437217315,-0.1776301772719662
-0.5441670645506842,0.2705722926958775,0.6597745548215252,0.9394896867605523,0.29144449599761946,-0.1800534204708504
-0.5407949634979328,0.27160742680452726,0.6591436839512743,0.9405390759628922,0.2858969904666574,-0.1834370666713168
-0.5374284204374354,0.27262088862763467,0.6585015661320176,0.9413724585017091,0.2802008795720512,-0.1878972098289295
-0.5340707579377896,0.2736091387394456,0.6578446951713549,0.9419267378966774,0.2744630691570375,-0.19350463587269304
-0.5307245575672869,0.2745737968967575,0.6571700999139813,0.9422144126734868,0.26853695110495845,-0.20029954179081289
-0.5273932347817515,0.2755126225563693,0.6564724061790727,0.9422004155262423,0.26244369996312755,-0.20828269570907723
-0.5240800782983034,0.2764252287735035,0.6557496681339157,0.9418223549915411,0.2561979058312823,-0.21756213982642494
-0.5207888087243014,0.27731008166386945,0.6549961420668923,0.9410627867199606,0.24973730281026021,-0.22810548225748215
-0.5175226218236475,0.2781671841512578,0.6542091257987022,0.9398517522274379,0.2430140609635976,-0.24004759946518037
-0.5142853257740817,0.27899389352825954,0.6533845630854241,0.9381213136035039,0.23607704164770282,-0.2533693575981621
-0.5110803672172145,0.279789844515138,0.6525193186273057,0.9358233380946579,0.2288171554855925,-0.2680995882743083
-0.5079111126072581,0.28055406215869816,0.6516074780712371,0.932902621660868,0.22123317316657523,-0.28416294900800726
-0.5047800704778733,0.28128680569878894,0.6506470826181647,0.9292520287410961,0.21333203608910556,-0.3016290925269532
-0.5016905371541417,0.2819834706975357,0.6496349584702192,0.9248000370443132,0.20509014988806065,-0.3204417605458591
-0.49864472747504995,0.2826461123931409,0.6485673583341566,0.9194111716056564,0.19655428825642754,-0.3406604017122089
-0.495645348076287,0.2832743176866411,0.6474391285707085,0.9129944123729579,0.1877736248709013,-0.36219092862549646
-0.4926942061174464,0.28386745845432726,0.6462499394058169,0.905484692077145,0.17871816904782242,-0.3849120528979989
-0.4897937815717871,0.2844235449535074,0.6449948153456946,0.8967925916249619,0.169407373597536,-0.40873486440156914
-0.4869455951915499,0.2849466896218112,0.6436709066430405,0.886805172633074,0.15994492050163447,-0.4335829888233041
-0.4841520333645006,0.28543458349225875,0.6422738881892125,0.8754963178689462,0.15024940921327415,-0.4592725905483356
-0.48141496112930093,0.2858882017499672,0.6408032844858017,0.8628361799879727,0.14041813016026694,-0.48558879231923924
-0.47873627554327025,0.2863077216367284,0.6392556275624726,0.8487480828800129,0.1305355157111349,-0.5124326013687367
-0.47611768203390203,0.2866938438645193,0.637631211724007,0.8332710400249466,0.1206745782860334,-0.539534076784064
-0.4735612721563034,0.2870467966927657,0.6359271313962386,0.8164102764563014,0.11078813234253763,-0.5667453133715338
-0.4710687126881666,0.28736843362747105,0.6341426031526726,0.7982258428876627,0.1010665494903189,-0.5938190434133965
-0.4686414306338043,0.2876592383737119,0.6322768777633413,0.7787801485169642,0.09146043447462572,-0.6205936425726643
-0.46628046861546135,0.28791964926241786,0.6303327726609776,0.7582112238236878,0.08203682139167484,-0.6468274112958851
-0.4639878012469164,0.2881495040324916,0.6283113994617111,0.7365052592197794,0.07279764916345302,-0.6725031638720225
-0.46176466256960236,0.28835152033254263,0.6262134771717316,0.713771180595111,0.0639450902005189,-0.6974537455567281
-0.45961322298961743,0.2885267145329928,0.6240393072673168,0.6901014191845553,0.05537114587059606,-0.721591343798164
-0.45753525526624783,0.2886768689340705,0.6217914856849404,0.6656639618342335,0.04707186683317783,-0.7447655532232891
-0.4555319031078438,0.288803798488743,0.6194699655380828,0.6405346507199123,0.03893624920362685,-0.7669415425735346
-0.45360442217467417,0.2889102166225539,0.6170779507775774,0.6148502957836149,0.03089294012038725,-0.7880385396828757
-0.4517543470513052,0.28899469586299004,0.6146161245333082,0.5887426372159369,0.022735114607434347,-0.8080007559945787
-0.44998266145681104,0.28905741744464686,0.6120887628692269,0.5623727900236454,0.014339393520049091,-0.826759473386606
-0.44829033828952064,0.289096985409543,0.6094979831734384,0.5358831252973603,0.005550831148123524,-0.8442739272861022
-0.44667767134833475,0.28911340785774686,0.6068474812832623,0.5093815801914643,-0.003902182740722451,-0.8605319161608737
-0.4451452816389139,0.2891040994790798,0.6041407585529711,0.4829899894002086,-0.01420009152342902,-0.8755107238291902
-0.44369298767557275,0.28906501351481045,0.6013818104691219,0.4568908944672454,-0.02557237579178474,-0.8891550844196328
-0.44232048966901727,0.2889924050880129,0.5985775724365076,0.4311935982535106,-0.038229874175946664,-0.901449143072243
-0.4410268030250423,0.28887948825510534,0.5957329585226588,0.406049846498154,-0.0522572006047905,-0.9123555815271676
-0.4398110982933104,0.28872103351666845,0.5928546284660934,0.38150879791196013,-0.06775011095175089,-0.9218790373914556
-0.43867171142651185,0.28851053270659355,0.5899447334807815,0.357706475221947,-0.08460133797567634,-0.9299939199785212
-0.4376063733977033,0.2882433988244023,0.587007616806718,0.3347476665087251,-0.10273418626324184,-0.9366908170467954
-0.43661161349530464,0.2879143184806911,0.5840467926212956,0.31275323682629913,-0.12202201221294218,-0.9419639278603918
-0.4356827988292146,0.2875186261471268,0.5810647712096839,0.291806977032407,-0.14223557870535364,-0.9458423379747607
-0.43481592176451006,0.28705176935355897,0.5780644490174993,0.27196381480726334,-0.16312996006367342,-0.9483798287422107
-0.43400673108742777,0.28651009102826264,0.575047943942626,0.2532237995561083,-0.18445938505389134,-0.9496591191600847
-0.4332510803265657,0.2858924429854293,0.5720190934447464,0.23559629386877118,-0.20589290798828774,-0.9497907647242239
-0.43254490282958724,0.2851992034599297,0.5689791998448414,0.21903857523722933,-0.22719096408982817,-0.9488974488288916
-0.43188479823476555,0.28443349006802193,0.5659325829015012,0.20350282097226532,-0.24818044812663745,-0.9470971792925958
-0.4312690127625757,0.28359483638272726,0.562882107299976,0.18894702450527637,-0.26868202305956346,-0.9445152155551665
-0.43069520558204916,0.2826858766039076,0.559831273339879,0.17532967820656714,-0.2885397698396251,-0.9412780169327645
-0.4301622665202048,0.2817093594139304,0.5567863061294032,0.1626373773356235,-0.30760280685982816,-0.9375124514934964
-0.429668431802675,0.2806669715141991,0.553748725609269,0.15086416494777735,-0.32574755813315975,-0.9333426659619143
-0.42921206224325537,0.27956319046600214,0.550722583084245,0.14002296464275582,-0.34281552424172296,-0.9289085453969763
-0.4287910368855518,0.2784012957940902,0.5477078782505621,0.13015479337489602,-0.3587149339395262,-0.9243285811497443
-0.4284019026227904,0.2771863415892122,0.5447060476679081,0.12132482306219501,-0.3733382420439534,-0.9197275924622776
-0.4280404861854422,0.2759222973783266,0.5417169097195236,0.11355895645345865,-0.3866487816638864,-0.9152087647346007
-0.4277022064398556,0.2746135653282494,0.5387393556254649,0.10686632907887855,-0.398635964135446,-0.9108616556903733
-0.4273829951887174,0.2732653574898472,0.5357730661757569,0.10121002777268655,-0.4093104254453187,-0.9067643055943613
-0.42707851400856384,0.27188321036741103,0.5328180464733611,0.09653902683189806,-0.41865143033124935,-0.9030012160456647
-0.42678465955565614,0.27047342193237195,0.5298736398634233,0.09274639042489866,-0.42670510446585963,-0.8996226213729466
-0.42649827363017395,0.2690428831123944,0.526939895942752,0.08970788799504727,-0.4335270936883472,-0.8966642369748016
-0.4262174891030639,0.26759697821582484,0.5240186224284182,0.08726154751001282,-0.4392246289627551,-0.894129267857108
-0.42594118920288115,0.2661383984355899,0.5211097412716562,0.08521685991461501,-0.4439545500572535,-0.89198791710973
-0.4256686281796575,0.2646723542233178,0.5182153829406354,0.08343188188235011,-0.44779380779226163,-0.8902358265024367
-0.42540072742622176,0.2632025154684979,0.5153379737583187,0.08176661253108629,-0.4508824991953024,-0.8888302385689797
-0.4251378816819002,0.26173198685262694,0.5124776179927195,0.08010997269969874,-0.4532946868285724,-0.8877535238832004
-0.42488102126103244,0.26026442230327196,0.5096369433486297,0.07835087295088175,-0.4550879082713423,-0.886992748816499
-0.42463125793674983,0.2588026677771013,0.5068174833236558,0.07640398472055146,-0.4562887470901862,-0.8865455489695325
-0.4243891418092629,0.2573492117776974,0.5040197508472307,0.07422410836285191,-0.4569398352486852,-0.8863953794445479
-0.4241555099535955,0.2559063209543033,0.5012439509322606,0.07175665833922658,-0.457085327146411,-0.8865235392765641
-0.4239312303142272,0.25447681072459444,0.49849052375623304,0.06892503938011448,-0.45676666200817573,-0.8869123718972235
-0.42371756344191897,0.2530625897793885,0.49576013218543846,0.06567647956498293,-0.45599806487437516,-0.8875541475666572
-0.4235154013252082,0.25166539779022734,0.49305351100994327,0.06194663334103319,-0.4547836867073857,-0.888444940850332
-0.4233259011340411,0.25028790113703625,0.49037165154213913,0.05765148926104263,-0.4531014052810368,-0.8895928407526296
-0.42315109311356947,0.24893239480696688,0.48771645386922485,0.05270625713143046,-0.4509788159534705,-0.8909770805247469
-0.42299280957324736,0.2475997057482312,0.48508851341988124,0.047020775328994194,-0.4484291841426238,-0.8925807041924225
-0.4228530946473638,0.24629131053438802,0.4824881171714395,0.04051266358280499,-0.4454322065544925,-0.8943986099348671
-0.4227346610801716,0.2450100266319582,0.47991685598928646,0.03311007039502065,-0.44197996973593834,-0.8964136487083716
-0.42264046049345294,0.24375823894535237,0.47737620934714126,0.02474539611193041,-0.438109182815766,-0.898581108917701
-0.42257255743667194,0.24253827799012428,0.47486781719334337,0.015379279704875633,-0.4338800448171824,-0.9008393777279049
-0.4225332430130374,0.24135224628711266,0.4723951981864619,0.0049494622879292715,-0.4293287225666627,-0.9031347356858431
-0.42252489931784876,0.2402017246109875,0.4699615979570844,-0.006583594702584758,-0.4244371071884456,-0.9054334864153721
-0.422549439304811,0.23908854738870366,0.4675688294543197,-0.019239853584754087,-0.4192355994731932,-0.9076735867967016
-0.42260842035396223,0.23801436644706542,0.4652191005006653,-0.03306996399387815,-0.4138129729592346,-0.9097610680239528
-0.42270310838216474,0.23698021178035533,0.4629158212886852,-0.04812398903434583,-0.4082362891745792,-0.9116069404520742
-0.4228348341546046,0.2359853050170186,0.4606618368505786,-0.06445349454622021,-0.4025617462594069,-0.9131209051869075
-0.42300426202030633,0.23502938280787222,0.45846056936531526,-0.08212069444254082,-0.39678101647091857,-0.9142324739980414
-0.4232121721419257,0.23411249252701333,0.4563146602729952,-0.10123344504949529,-0.3909190553077049,-0.914841014494181
-0.4234598001158707,0.23323421380045167,0.4542263295829844,-0.12187052928298472,-0.3850280324065063,-0.9148229273217082
-0.4237481291818593,0.2323929306396762,0.4521973903623795,-0.14403724866095025,-0.3790563194475422,-0.9140949500380507
-0.42407832863501027,0.23158816505312402,0.4502287510722922,-0.16774074261748997,-0.3729616049641621,-0.9125583184041934
-0.4244517808637473,0.2308198083131165,0.44832071923827277,-0.1929212980243813,-0.3667573718590956,-0.9100936231814818
-0.42486940506820026,0.2300866927522786,0.446472709762468,-0.21942300768980236,-0.36047067555870654,-0.9065949678652593
-0.4253318958797152,0.2293871530055025,0.44468409003043735,-0.2469500241862378,-0.3541341622340126,-0.9020003773243284
-0.4258399090198228,0.22871851514927233,0.4429529509309337,-0.275150052029553,-0.3478213700002373,-0.8962771577136686
-0.42639365728844225,0.22807835215096406,0.4412758784713775,-0.3035815875454234,-0.3416323391258783,-0.8894523958969257
-0.4269926084585678,0.22746439655018985,0.43964782467382624,-0.33168999706385466,-0.33567395709117054,-0.8816488759015887
-0.4276355734786876,0.2268735125121205,0.43806334855193046,-0.35889440217487484,-0.33020069195658536,-0.873019078324713
-0.42832095867053316,0.2263009544652479,0.43651682087989807,-0.38469441489609596,-0.32545979811345777,-0.8637627723858546
-0.4290468020108781,0.22574119866987802,0.4350019076933485,-0.40864284889884694,-0.32158381871607206,-0.854163256985351
-0.42981043017866977,0.22518946988127075,0.4335121428137857,-0.43041239072477067,-0.31859008880251977,-0.8445386487469889
-0.43060898186527125,0.22464212725945287,0.4320408233821747,-0.4498785363427737,-0.3165079671146924,-0.8351239484597534
-0.43143998914269777,0.22409530947326217,0.4305825101709963,-0.46707594883580017,-0.31534584793576476,-0.8260732741160499
-0.4323009891298857,0.2235450786877669,0.42913264870598344,-0.4821278218906446,-0.31505427893180843,-0.8174922413611895
-0.43318963831435564,0.22298942189108822,0.42768659438805345,-0.49525696953360465,-0.31547918407045195,-0.8094401883688703
-0.4341039449706399,0.22242627976406637,0.42624088272121696,-0.5068112445482179,-0.31645999088999593,-0.8018699623788075
-0.4350423233053046,0.22185368215466078,0.42479367498016946,-0.5171455660286399,-0.31786484973490287,-0.7946838370320144
-0.43600381169793895,0.22127061192194314,0.42334441056891337,-0.5266522337819415,-0.31951196115099184,-0.7877496628586637
-0.4369875913739805,0.2206772421171747,0.4218926772176069,-0.5356748254174613,-0.3212594756129691,-0.7809256243348994
-0.4379932752080644,0.220075014288175,0.42043927637231016,-0.544528605884148,-0.32299856569491053,-0.7740546000980143
-0.43902101525071024,0.21946513501131143,0.41898603112896154,-0.5534625967201793,-0.32465776629181353,-0.7669918440362755
-0.44007140046961013,0.218848833081284,0.41753546780378165,-0.5626188599209468,-0.3262760901809185,-0.7596077484053906
-0.44114502438965186,0.21822679023456865,0.4160901928331245,-0.572067969922025,-0.32801792264130036,-0.7517595893737432
-0.442242752487726,0.21759952368163027,0.41465356694192834,-0.5817679999671727,-0.3300012239373197,-0.7434010939015808
-0.4433648035856166,0.21696763331321955,0.4132283467497518,-0.5916630563049151,-0.33230290698321535,-0.7345131760659107
-0.44451138962142756,0.21633176299102075,0.4118168974796426,-0.6016196755301066,-0.33506069313620024,-0.7251124726069316
-0.445682609320386,0.21569039453404942,0.41042126656065575,-0.6115341737186475,-0.33838522302444,-0.7152072393460172
-0.4468783942944721,0.2150419852829567,0.4090429936124634,-0.6212111333223975,-0.3424150735602828,-0.7048749146018806
-0.44809808716944555,0.2143847203880871,0.40768225561628113,-0.6304814420210598,-0.34725710842737467,-0.694194246528811
-0.44934091872753457,0.21371539962992148,0.40633870832044794,-0.6392126656905506,-0.3530231863319658,-0.6832143133254795
-0.45060622045822235,0.21303035773033985,0.4050121853059876,-0.6473137893367377,-0.35966919072839576,-0.6720289661728089
-0.45189307203780016,0.21232631896593568,0.40370221019556324,-0.6547040639748479,-0.3670526699351934,-0.6607835697929121
-0.4532002677258989,0.21160134789160578,0.4024074707673062,-0.6613760730808096,-0.3750578625703017,-0.6495485275792751
-0.4545272500555916,0.2108532576374771,0.40112638437763265,-0.6674122127943315,-0.38354850430927356,-0.6383192642049065
-0.45587393084342037,0.21007947948667843,0.3998579088494312,-0.6729340095954871,-0.3923137747533341,-0.627096261245856
-0.45724047853031063,0.20927840275870324,0.3986016926717325,-0.6780842463766027,-0.4010234679654568,-0.615939877712779
-0.4586264946226617,0.20845013237603366,0.3973572286034524,-0.6830498766212502,-0.40944435851399935,-0.6048125191567668
-0.46003210614171725,0.20759586189798818,0.39612465381481793,-0.6880225507083932,-0.41746770719338244,-0.5935871319085487
-0.4614574474267288,0.20671684659321327,0.3949040216254659,-0.6931565718407978,-0.4249448109673353,-0.5821991708563732
-0.46290341630178855,0.2058145723394989,0.3936967559261529,-0.6985892916881078,-0.4316905949218475,-0.5706279276329973
-0.4643702839986756,0.20489062545298103,0.3925041536066288,-0.7044597423080436,-0.43760785864870055,-0.5587806667344383
-0.4658587709077744,0.20394899527331173,0.3913280416274816,-0.710868946179429,-0.4426773074717672,-0.5465364972326135
-0.46736965779899364,0.20299244269565325,0.3901696942059307,-0.7178798957584686,-0.4469081108922099,-0.5337804751811052
-0.46890454074065363,0.20202262866146165,0.3890315723886406,-0.7255133455360723,-0.4502923255094089,-0.5204490436501776
-0.47046495802169286,0.20104134463068052,0.38791692348459994,-0.7337555354456693,-0.45282829303862804,-0.5065070100468124
-0.47205210686983096,0.2000517941076449,0.38682851129235657,-0.742518335935602,-0.45459169473176353,-0.49194807843951127
-0.47366689126031103,0.19905679420977584,0.38576764546348224,-0.7517168104118407,-0.45566026078752414,-0.4767552450506386
-0.4753107056461361,0.19805671247385498,0.3847357173851145,-0.7612788387382557,-0.4561000846654207,-0.4608982994734619
-0.4769847885534543,0.19705135699575932,0.3837346984673724,-0.7711475742366032,-0.4559435335483631,-0.44434998927020963
-0.4786899517763848,0.19604116591871013,0.38276653831118146,-0.7812785693999238,-0.455146563365832,-0.42713628135839876
-0.4804263349439466,0.19502835740728303,0.38183221416620394,-0.7916127776613378,-0.4536786005294506,-0.40929810366643604
-0.4821945936863881,0.19401486529442014,0.38093317327360315,-0.8020892262115497,-0.4515627498075602,-0.3908247128593485
-0.48399559064765085,0.19300146909797866,0.38007159063134655,-0.812602457694801,-0.44886914100319536,-0.3717441862402461
-0.485830008221221,0.19198909978003453,0.3792497681755609,-0.8230800057346935,-0.44561900953392175,-0.35208380039670034
-0.4876975502032418,0.19098036030978677,0.3784689464717917,-0.8334135892525447,-0.441883940449756,-0.3319041615011588
-0.48959815732914547,0.18997795644397192,0.3777302369298143,-0.8435522720544587,-0.4377282649384897,-0.31114872711566727
-0.49153240020074407,0.18898210667348847,0.3770354464019687,-0.8533702059082928,-0.4333050477150454,-0.28983793280504244
-0.4935008832792107,0.1879929642171036,0.37638760508100166,-0.8627568243705475,-0.4287356938752067,-0.26802307139385045
-0.4955030257218258,0.1870121903002558,0.37578900748642324,-0.8715683463593284,-0.4241998280400135,-0.2458111541718331
-0.4975374860415741,0.18604107354614952,0.3752407488591181,-0.8796690808201924,-0.4198869961117454,-0.22333208176438288
-0.49960279971461785,0.18507777080004711,0.3747430642541096,-0.8869304350978998,-0.41601459208542885,-0.20071438032449085
-0.5016977332451217,0.1841192525483979,0.37429648344049654,-0.8932363466201032,-0.41284094510070674,-0.1780201761742924
-0.503820410504542,0.1831632808756023,0.3739017174239501,-0.8984865955061658,-0.4105971353491799,-0.15534423110880807
-0.5059688484979105,0.18220651209989575,0.3735592985156599,-0.90265144596211,-0.40935849434464006,-0.13283821065642692
-0.5081410037265454,0.18124547059640767,0.3732693665414615,-0.905758145144532,-0.4090870774767769,-0.11067947210682928
-0.5103348228869753,0.18027712487614295,0.37303226940202233,-0.9077968960681824,-0.40985721776311324,-0.08900481187247013
-0.5125482103913281,0.17929796906006007,0.3728477097746093,-0.9087796228395885,-0.41170968765378285,-0.06793180553731656
-0.5147792703796015,0.1783042129028723,0.3727144534716945,-0.9087673936841009,-0.41457434460654174,-0.047643855539439214
-0.5170258511026842,0.17729390099574405,0.37263043523599926,-0.9078188208270127,-0.41840817473960135,-0.028276984692989733
-0.519285728582784,0.17626447621699187,0.37259354869665945,-0.9059702588488278,-0.4232253219394675,-0.009910446540006602
-0.5215575828946921,0.17521185298557718,0.37260271550181745,-0.9033219958881503,-0.42889920145695604,0.007405858102475793
-0.523839507571969,0.1741337781817759,0.3726563176829756,-0.8999888110053216,-0.4352743464681764,0.02358778013992209
-0.5261288629672614,0.17303025214696371,0.3727512169060473,-0.8960444648367434,-0.44228682659708607,0.03855749024655508
-0.5284233579184764,0.17189912704606392,0.37288406299588994,-0.8915699421957041,-0.44986134000258327,0.052228468714189936
-0.5307214670660722,0.17073736017572905,0.37305134560590314,-0.886664581128103,-0.45788213333900896,0.06457455026435441
-0.5330215144776188,0.16954521937075845,0.3732498705587545,-0.8813773128926286,-0.466323106701021,0.07560947344663686
-0.5353213961333027,0.16832245758829667,0.3734772444543193,-0.8757699377900329,-0.4751306550286311,0.08531047248319526
-0.5376193956464539,0.16706608145373208,0.37372992955719875,-0.8699461815194616,-0.4841520743911283,0.09375718704438255
-0.5399140617523581,0.16577565659416782,0.3740045356190668,-0.8639909364835574,-0.4932692293769109,0.10102043864572213
-0.5422038506614377,0.16445290085029524,0.3742980257418626,-0.8579762485621951,-0.502392434223823,0.10713822351431794
-0.5444875240786073,0.16309742508792963,0.3746069017784549,-0.8520035650874007,-0.5113807802904254,0.11215891684531927
-0.5467646554820044,0.16170973131483068,0.374927687802346,-0.8461463513358295,-0.5201296698848045,0.11619586320772096
-0.549034654369479,0.16029271630430175,0.3752574055383028,-0.8404415160522417,-0.5285975607030303,0.11934268689205686
-0.5512970420398468,0.15884739340651782,0.3755942846718547,-0.834920054196198,-0.5367553345404315,0.12166434951705198
-0.5535517387662306,0.15737344276419224,0.37593633946542665,-0.8296403046628443,-0.5445123071234139,0.12330171235664078
-0.555798470177217,0.15587374845516405,0.37628167471718255,-0.8246603062104525,-0.5517935855960628,0.12433510468054901
-0.5580373228970652,0.1543513281379265,0.37662863816033043,-0.8200169666341461,-0.558566567319532,0.12480210056328556
-0.5602687662613773,0.15280668787992935,0.37697619152324846,-0.8157256621554295,-0.5648204090620084,0.12477800129875298
-0.5624929096203103,0.15124263654303854,0.3773228510942528,-0.8117912333191453,-0.570552456118648,0.12435790414428426
-0.5647096613027388,0.1496636690028026,0.37766783708571267,-0.8082049096369335,-0.5757798582471724,0.12362191907433887
-0.5669188750428036,0.14807026754492258,0.3780107479451014,-0.8049327255853963,-0.5805618891821968,0.12260179489250472
-0.5691200674474541,0.14646342728855555,0.3783489589389132,-0.8019194099526263,-0.5849719610388486,0.12137983662699117
-0.5713128201288072,0.14484659248591286,0.37868197084287947,-0.7991812917579708,-0.588980206442279,0.12004823748507042
-0.5734968303026211,0.14322130077217599,0.37900981358828173,-0.7967348418074367,-0.5925637592687152,0.11866668888701168
-0.5756717264261224,0.14158841017518708,0.3793318075246642,-0.7945292325702519,-0.5957901892307707,0.11729172608368146
-0.5778370825429485,0.13995091781048397,0.37964769285543587,-0.7925596206736903,-0.5986594645823253,0.11600040148025192
-0.5799927331391883,0.1383107263385593,0.3799590219316086,-0.7908359020535657,-0.6011649757209917,0.11480090587405113
-0.5821385678647943,0.1366679072003097,0.3802673094433616,-0.7893161161857166,-0.6033765979603154,0.11365187971754896
-0.584273915317923,0.1350244289438744,0.38057224206600393,-0.7879355289325527,-0.6053910631945745,0.11251338964728312
-0.5863982021748364,0.13338255011689176,0.3808746168945683,-0.7867326503121888,-0.6071693169186163,0.11134252343709576
-0.5885115098642683,0.13174270817373235,0.38117499146547645,-0.7857236268384685,-0.608710443744651,0.11004534476293508
-0.5906133020981367,0.1301068538323401,0.38147260893057044,-0.7848332613327819,-0.6101307954390826,0.10852264446935284
-0.5927026206013466,0.12847811651407637,0.3817661250223745,-0.7840281992035448,-0.6114925948173302,0.10666109570604863
-0.5947792721172113,0.12685670591308784,0.38205475303141173,-0.7832892517245055,-0.6128400458447913,0.10433132962738619
-0.5968425165829478,0.1252414243060952,0.38233656265959437,-0.782565646743004,-0.6142562174947432,0.10139185276320045
-0.5988911604158973,0.12363419075858252,0.38260834786686043,-0.7817944067473802,-0.6158383951399009,0.09767587547610117
-0.6009243736596435,0.12203418493796658,0.38286874880244637,-0.7809712722415084,-0.617585572313884,0.09312321302023567
-0.6029417053641296,0.12043903008656064,0.3831152352390469,-0.7801176110563445,-0.6194620156689677,0.0876545724025933
-0.6049423026369755,0.11884887275849877,0.38334467004126743,-0.7792770806244664,-0.6213970224233638,0.08119711901777273
-0.6069252352093927,0.11726405088500373,0.3835546624419758,-0.7784902869351821,-0.6233092188795512,0.07374612401571737
-0.6088903266653194,0.11568368595955829,0.38374353512756876,-0.777805081269056,-0.6251003872947272,0.06533575863200197
-0.6108370337303732,0.11410880821166383,0.3839081572998509,-0.777295714168257,-0.6266396383346694,0.055983358272381344
-0.6127643151798884,0.11254249066113488,0.3840450491021085,-0.7770392751946836,-0.6277889074441392,0.045728027455980425
-0.614671500084856,0.1109863361140065,0.38415267849060036,-0.7770885705106021,-0.6284357944910967,0.03466707060213058
-0.6165585016904434,0.1094434455278266,0.38422918501816744,-0.7775214543565504,-0.6284396317324196,0.022891423793541085
-0.6184248244364784,0.10791920509459019,0.38427270415843395,-0.7784272559821066,-0.6276469476570501,0.01050315385757525
-0.6202703496568165,0.1064166671291127,0.3842828069983708,-0.7798615295622109,-0.6259476212290961,-0.002360124260527451
-0.6220956568846684,0.10493810659912055,0.38425988008286643,-0.7818362126612891,-0.623290232401622,-0.015537785047538643
-0.6239009038576836,0.10348807377867257,0.3842041904130547,-0.7843393390302307,-0.6196577904037633,-0.02891408033374977
-0.6256866753508504,0.10207187591377133,0.3841169702874484,-0.7872868396871445,-0.6151286596313611,-0.04238117690146853
-0.6274537850399933,0.10068975205679352,0.3840002248511851,-0.7905496946877724,-0.6098475856790092,-0.055831017101190206
-0.6292031795767271,0.09934180041836393,0.3838555594534719,-0.794088563515735,-0.6038404877416553,-0.06928216695107253
-0.6309354955703201,0.09803009266261642,0.3836845425111402,-0.797823226212614,-0.5971858900832888,-0.0827472803246499
-0.6326511443141964,0.09675608036571064,0.383488475476361,-0.8015569563581366,-0.5901251166010302,-0.09622261932883004
-0.634350805519189,0.09551906180714147,0.3832679805122746,-0.8051185545504167,-0.5828776012174098,-0.10971697734482906
-0.6360345970934166,0.09431799502711606,0.38302275199908387,-0.8083992321529574,-0.5755857168794559,-0.12325487405726318
-0.6377021704336555,0.09315176604122226,0.38275306595065217,-0.8112565403207351,-0.5684565729114207,-0.1368208701208777
-0.6393528396765077,0.09201848089372118,0.3824595868367601,-0.8135082996052352,-0.5617830435598228,-0.15034646135530133
-0.6409859543834769,0.0909155168297505,0.3821424666224709,-0.8150558284552432,-0.5557308012685328,-0.16385137479609851
-0.6426008520231197,0.08983857320885663,0.381802152414881,-0.8158779842938382,-0.5503510321608286,-0.1773608078018771
-0.6441970642452145,0.08878264497899906,0.38143916679935436,-0.8159850416900594,-0.5456667314138911,-0.19083036961173735
-0.6457739744582494,0.08774513481194506,0.38105346033666887,-0.8154673861975476,-0.5416008971454562,-0.20416025631688653
-0.6473309228804424,0.08672520825390964,0.38064561524382784,-0.8144137114511314,-0.5380785624449135,-0.2172596769711501
-0.6488675556592589,0.08572136987577722,0.38021697235887303,-0.8128902859732896,-0.535078362520615,-0.23000114985043152
-0.6503835360049682,0.08473013916480104,0.37976961971975093,-0.8109222747203085,-0.5325927446527174,-0.24238406033756793
-0.6518784870548296,0.08374981515594145,0.3793056067619532,-0.808670991716361,-0.5303492513307606,-0.254520920101627
-0.6533516419934022,0.08278172865124399,0.37882602969557316,-0.8063476909185042,-0.5279827057101307,-0.26652891742061713
-0.6548022173459729,0.08182762515273342,0.3783315929950083,-0.8040951886780809,-0.5252239615496805,-0.2785152020246315
-0.6562296094381916,0.08088871599275359,0.3778225567147664,-0.8019989383620284,-0.5219183716240219,-0.2905149156713105
-0.657632767209774,0.07996744254946951,0.3772995571505916,-0.8001656380186628,-0.5178590950148365,-0.30258372303314846
-0.6590102065874996,0.07906824247872224,0.37676380285423233,-0.7986815280466203,-0.5128974977253756,-0.3147125253054983
-0.6603601963731075,0.07819535849844135,0.3762165818197095,-0.7975621593711842,-0.5069986365998909,-0.3268745698659126
-0.6616813413463286,0.07735070084467914,0.3756596836276665,-0.7968051743633391,-0.5001182635581328,-0.3390917819166469
-0.6629725112244725,0.07653545182302111,0.37509455386057144,-0.7964497595142234,-0.4921332136538446,-0.3513867962637114
-0.6642325335681377,0.07575206039387206,0.3745219470533468,-0.7966149101634151,-0.48277021022019284,-0.3637823649234319
-0.665460244291045,0.07500500716091729,0.3739427204550151,-0.7973788823592773,-0.47185651603446466,-0.37621582402031783
-0.6666549548046168,0.07429849171053159,0.373359155664503,-0.7987556214810309,-0.45940515028858026,-0.38850529602668105
-0.6678163627989686,0.07363464695665561,0.3727739598917283,-0.8007079990348331,-0.44555395200033054,-0.4004352333880233
-0.6689443166860162,0.07301428067777536,0.37219067819111185,-0.8031519586529493,-0.43050601562097773,-0.4118391698540602
-0.6700385844031737,0.07243735688075356,0.37161184084370413,-0.8060652686189587,-0.4142721414504963,-0.4226551496720062
-0.6710987653124448,0.0719046557980312,0.3710395866079342,-0.8093872240868535,-0.39680080513492305,-0.4329450802691428
-0.6721246155551879,0.07141664649082853,0.37047623982001215,-0.8130010487875409,-0.3781638349560794,-0.4427430503143667
-0.6731157262768792,0.0709738637731399,0.3699237991999396,-0.8167210155925273,-0.35860418637221625,-0.45207280409888784
-0.6740712791943951,0.07057603755424977,0.3693846910846567,-0.8203676789180391,-0.3383223040695289,-0.4610150647817426
-0.6749899758004447,0.07022271571144485,0.36886085349030956,-0.8237417999922041,-0.31755443968213276,-0.4696899240815907
-0.6758703884906545,0.06991129165777153,0.36835382041611053,-0.8266265503569163,-0.2966293865652845,-0.4782254209794031
-0.6767111433076881,0.06963735512628427,0.36786446675366513,-0.8288637558134477,-0.27590494155183554,-0.48668402226301144
-0.6775110831301956,0.0693973995599481,0.3673929707074329,-0.8302358071190223,-0.25562996274051303,-0.49534011217214124
-0.678268988457281,0.06918846384291481,0.366939057853069,-0.8305888703422487,-0.23572383350987852,-0.5045358290339689
-0.678983845278952,0.06900908429855115,0.3665023305649542,-0.8298465577002955,-0.21606722529561972,-0.5144605376761391
