-0.5495095493761709,-0.17493675711096773,0.39854939162806474,-0.024499427678134983,0.05260232281279663,0.998314967171254
-0.5497085387582258,-0.17449715318926595,0.4067575074012632,-0.017975663221203423,0.0507880898486453,0.9985476680966633
-0.549854250155105,-0.17406208871160694,0.4151128095109347,-0.009542382117803146,0.04736029367553882,0.9988322909910775
-0.5499228231000459,-0.17364929095383982,0.4235785030663841,0.0010664806990890016,0.04152673184635844,0.9991368240441743
-0.5498882982377716,-0.17328497387610836,0.4321301862508554,0.013789047837824668,0.03257492082329122,0.9993741725165217
-0.5497311023141468,-0.17300480429796675,0.4407400183038986,0.028409255319786844,0.02003373175957967,0.9993955992518481
-0.549433872713824,-0.17284864115687618,0.4493994944201782,0.044728181865391944,0.003465800960383002,0.9989931821442624
-0.5489862644902109,-0.17285652487124395,0.4580925256834188,0.062483661701971484,-0.017011834640060685,0.9979009918336051
-0.5483759687758678,-0.1730630939828551,0.4668048075119094,0.08152620256221639,-0.04122023974665541,0.9958184423533301
-0.5475901773619835,-0.1735023610582733,0.47551491108491806,0.10163909732817224,-0.06872274201950485,0.9924447987790732
-0.5466182909347258,-0.17420003541674342,0.48420143676082705,0.12252713364676271,-0.09924028105393444,0.9874909964838385
-0.5454533418258026,-0.17518599902272536,0.49283156000603057,0.14376086996528117,-0.1320418915773459,0.9807638610468383
-0.5440971422135926,-0.17647786068393692,0.5013769230440185,0.16462284094228163,-0.16608293204681934,0.9722735108614364
-0.5425546962224802,-0.17808063541833877,0.5098243387999335,0.18420916421175842,-0.20040821975383202,0.9622388109380671
-0.540843746596813,-0.17998591196905603,0.5181480540957522,0.2015676337101211,-0.23426269344456044,0.951047569525627
-0.5389884017000287,-0.18217951469938024,0.5263432481866822,0.2159274752328226,-0.2670864991438919,0.9391699140276154
-0.5370228060691576,-0.18464160451336345,0.5344095921058619,0.22673988269765805,-0.2987189450800714,0.9270145724013735
-0.5349866664840417,-0.18735701305134925,0.5423443813226694,0.23365413932366166,-0.329470461530001,0.914797768993851
-0.5329208196794604,-0.1903213529465391,0.5501375440469786,0.23667506948511874,-0.35978123636923326,0.9025200127647254
-0.530861937238084,-0.19352650991650022,0.5577862172656117,0.236096536329689,-0.38966175147463844,0.8901809619233837
-0.52884241412587,-0.19695978246310597,0.5652752679906565,0.23244248312087878,-0.41949312189599486,0.8774941667740886
-0.5268929990743613,-0.20060449660731464,0.5725782213454532,0.22616195081558535,-0.4497335929253105,0.8640546669035357
-0.5250400938561216,-0.2044476964849291,0.579667478523866,0.2177742912257637,-0.480612566464531,0.8494621351405212
-0.5233045180495817,-0.20847390161575277,0.5865088299200372,0.20795344362401377,-0.5122707708319886,0.8332670776144431
-0.5216985088437004,-0.21266712561434464,0.5930633841557318,0.19737141392504082,-0.5451430316775279,0.8147782520285283
-0.5202243328210019,-0.21701462397301108,0.5993006538848256,0.18666372888757068,-0.5795228998569033,0.7932905273978967
-0.5188750289648403,-0.22150355415934797,0.6051965981771104,0.17627539534107523,-0.615863446688385,0.7678796780944592
-0.5176396800520283,-0.2261241083272692,0.6107258763697476,0.16644972563878271,-0.6547334628165064,0.7373049447162827
-0.5165079090623755,-0.23088058290773936,0.6158532492811594,0.15717682655553508,-0.6964320576599097,0.7001984249179053
-0.5154704180056661,-0.2357898440426041,0.6205459455689438,0.14816806373853758,-0.7405789915146845,0.655430379380652
-0.5145185252221833,-0.24086868614489584,0.6247771157842013,0.1389569276531827,-0.7861830537910506,0.6021687290028984
-0.5136497252903711,-0.24612796240716317,0.6285204863227398,0.12922853559225594,-0.8314182715989794,0.5404106246550364
-0.5128610871170445,-0.2515702596684269,0.6317615223930518,0.11879006858193093,-0.8741538543292475,0.4708969723491761
-0.5121512172854831,-0.25718349246412225,0.6344927309593573,0.10745851570562087,-0.9126508161388973,0.3943617060559374
-0.5115249285030508,-0.26294958061933327,0.6366956819382801,0.09547536611131117,-0.9452996779020336,0.31191821592241603
-0.5109819270537753,-0.268844621856398,0.6383530510467966,0.08295275573736058,-0.9709744456933647,0.22433783926489367
-0.5105181231051003,-0.2748362854589764,0.6394510218248779,0.06987572483901403,-0.9886423354743716,0.1330553102510465
-0.5101306440532174,-0.2808826998265141,0.6399824588006598,0.055655862874308085,-0.9976911250196367,0.03892099670830341
-0.5098277707726644,-0.2869430096114808,0.639931221400449,0.03981013214844186,-0.9976049704064431,-0.05656391428007315
-0.5096177743497513,-0.2929739193889341,0.6393022261340584,0.021861393298758754,-0.9881782165937388,-0.15174284738548538
-0.5095211471431,-0.29893514471710614,0.6380939049503201,0.0013712615233688527,-0.9695151528744195,-0.24502752496143254
-0.509558556232735,-0.3047932903057104,0.6363129154620288,-0.02179516990317549,-0.9419805240269908,-0.3349591959070951
-0.5097463286573112,-0.31051428252945484,0.6339733640472964,-0.04731678414829129,-0.9062545847355199,-0.42007588550607644
-0.5101024770814316,-0.3160543048309779,0.6310909434346496,-0.07460862570032668,-0.8632198405104946,-0.49928454804865025
-0.5106430139855939,-0.3213677499782529,0.6276913536480142,-0.1029262695984943,-0.8140676109838999,-0.5715768607750875
-0.5113843460555578,-0.3264185104174978,0.6237943461836429,-0.13118262069373668,-0.7603554732643667,-0.6361215876739633
-0.5123300807678978,-0.33117766973113144,0.6194385113751752,-0.15790707466923057,-0.7044220905071141,-0.691993406164389
-0.5134784893242915,-0.33563902991544553,0.6146480308718831,-0.18179514623565182,-0.6487851810517087,-0.7389372866846411
-0.5148067604770278,-0.3398166264348911,0.6094701612895835,-0.20185511614268536,-0.595902429495267,-0.777273958529849
-0.5162929584957315,-0.34373403755019716,0.6039351437836741,-0.21787772013932938,-0.5472924135620784,-0.8080843477783017
-0.5179057295663283,-0.3474090688063581,0.598090893381429,-0.23035972398002402,-0.503578690573009,-0.8326721443453123
-0.519619249985776,-0.3508581432914333,0.5919809718530189,-0.24029414944904776,-0.46502065371694395,-0.8520648527883455
-0.5214157853656636,-0.35409413421003183,0.5856529696723031,-0.24872385597793212,-0.43143636494688214,-0.8671788203530397
-0.5232839042657847,-0.35712489467563135,0.5791679881774311,-0.2563076004357758,-0.40286968353608044,-0.8786366894492814
-0.5252152153613721,-0.359968207772968,0.5725861548480456,-0.2632932530233965,-0.3793116932095112,-0.8870170811810173
-0.5271962988748634,-0.3626472509858882,0.5659786153937265,-0.2694563841153319,-0.3608645583245968,-0.8928437867872993
-0.529210917628121,-0.36518615893811546,0.5594027711129514,-0.27424356117655224,-0.34731457489872863,-0.8967513898601541
-0.531228994371043,-0.36761150410859955,0.5529092206548416,-0.276895017653894,-0.3383818504833517,-0.8993480263290249
-0.5332185559498148,-0.36994911303615186,0.5465328180765449,-0.2770314087705775,-0.33339310027498786,-0.90116737582073
-0.5351522861856824,-0.372221765586256,0.5402878041809913,-0.2747011724248765,-0.33144952225879415,-0.902596521189183
-0.5370051947629949,-0.37444317685213907,0.5341968548115013,-0.2703089218355981,-0.3314336503773261,-0.9039274429807056
-0.5387642608065588,-0.37662108907732106,0.5282624510374873,-0.2646443481945107,-0.3320632253977274,-0.9053714062787497
-0.5404241504895874,-0.3787483491978484,0.5224981200479029,-0.25860032823918105,-0.33215312226073707,-0.9070833333310847
-0.541989575209744,-0.3808091507895222,0.5169074941014763,-0.25288750305703506,-0.33057884460248677,-0.9092664836552939
-0.5434671981907311,-0.38278550188854893,0.511494803503803,-0.24789222829346502,-0.3267477045816919,-0.9120226865063698
-0.5448640167276438,-0.3846571856012359,0.5062646209491791,-0.24390883316458958,-0.32033726292474257,-0.915364691850288
-0.5461885417077719,-0.38640753182176907,0.5012187958948232,-0.24095383650725194,-0.31155981053649817,-0.9191690449155138
-0.5474451729871342,-0.3880268969826001,0.4963651722453334,-0.23880233643211327,-0.30096084229696185,-0.9232529531598949
-0.5486401274973031,-0.3895126034908613,0.49169891965199375,-0.2371910042240576,-0.28896754084453696,-0.9274902629426598
-0.5497736529064812,-0.39086226512456584,0.4872384458194485,-0.23563721046691674,-0.27618771094643735,-0.9317700646433847
-0.5508464047089949,-0.39208078872064184,0.4829858080890562,-0.23357362351912186,-0.2630189075573575,-0.9360899618431349
-0.5518528144530672,-0.39317425094886593,0.4789472200132712,-0.23031382715199616,-0.2499596352470624,-0.9404656940950882
-0.5527834895637963,-0.3941484853460319,0.4751326264351595,-0.22525819785549056,-0.2370346620184597,-0.945025562247229
-0.5536293204553678,-0.39500992556344583,0.4715497213346444,-0.21817525516535632,-0.2241825961943756,-0.9498114137012049
-0.5543824678701732,-0.39576741601794935,0.4681992152922846,-0.2093108840384471,-0.2112003347347197,-0.9547687533800979
-0.5550393473699202,-0.39642425406804804,0.4650912562926056,-0.19960696430853014,-0.19769678532829235,-0.9597255028758964
-0.555603079376503,-0.39698181577633784,0.46223937821426486,-0.1902695134080043,-0.1835993847769768,-0.964411104341399
-0.5560843574907629,-0.3974443980542222,0.4596462615582009,-0.1827996177224645,-0.16888334619203868,-0.9685363778090634
-0.5564977811316894,-0.3978173248018774,0.457322254629282,-0.1783832791276698,-0.15389258678598,-0.9718520862044695
-0.5568565381103933,-0.3981093986406616,0.4552834804430105,-0.17773571751317543,-0.13884005015896597,-0.9742348049581953
-0.5571696521580689,-0.39833128086184705,0.4535401880750348,-0.1810583082808572,-0.1236288059427722,-0.9756709523930897
-0.5574398947778788,-0.39849165328767366,0.45210326885479596,-0.18810815590103552,-0.10783851077312627,-0.9762101091864118
-0.5576658523750815,-0.3985974533391185,0.4509772397578073,-0.19913183217743016,-0.08964017789934918,-0.9758643101988271
-0.5578445187263663,-0.398655796887628,0.45015616486595483,-0.21594685801984512,-0.06474090210924702,-0.9742564190732528
-0.5579751307710833,-0.39867385939670125,0.4496201770828587,-0.24555727337375857,-0.021199673779035713,-0.9691502460015722
-0.558060839036947,-0.39865796464989756,0.4493423367682382,-0.31896878338519785,0.0897398734663574,-0.9435071119689606
-0.5581069074132287,-0.3986163838598835,0.44928304010284176,-0.612500194703943,0.7118411888072634,-0.34369409858927435
-0.558120627393321,-0.3985555979602723,0.4493978305788795,-0.05431406673086273,0.4083707623014511,0.911198827179056
-0.5581089868875079,-0.3984812104016252,0.4496448196025159,0.05872201334831546,0.27208812844905356,0.9604789302766675
-0.5580772645829204,-0.39839913253260895,0.4499873740967518,0.09586256679269098,0.22522266948554717,0.9695798664564568
-0.5580295370061108,-0.39831343013836695,0.4503984592323334,0.11413375481851984,0.20222097908794276,0.9726665212845254
-0.55797027807443,-0.39822498536971435,0.45085844499624966,0.12411292627269484,0.19004345847762572,0.973899104333653
-0.5579035965477314,-0.3981337535546819,0.4513518373157114,0.1294210039126879,0.18407974802726315,0.9743535549852791
-0.5578332669984593,-0.39804032147569046,0.4518629071119998,0.13160222654093123,0.18230780617669745,0.9743945390736287
-0.5577624491499574,-0.3979446831692035,0.45237987589096273,0.13157776872772756,0.18349973279796158,0.9741740803571554
-0.5576930861808708,-0.3978476191333126,0.45289336785923195,0.130608320506134,0.18595941213087264,0.9738380582286292
-0.557626187377739,-0.3977507156857078,0.4533955467012821,0.12970664209873256,0.18832246542366618,0.9735044098576151
-0.5575621932089196,-0.3976553821264875,0.4538811897773437,0.12938995384951332,0.18988186412356073,0.9732436064623196
-0.5575010188938596,-0.39756329845486177,0.45434635656880973,0.12971083529122418,0.19052776366481394,0.973074647948932
-0.5574424138611318,-0.39747693896913744,0.45478573060511535,0.13018378877555026,0.190898152853642,0.972938886249856
-0.5573866519801806,-0.39739808850648184,0.4551938577379783,0.1294000145109575,0.1928432466458273,0.9726598164145882
-0.5573356112684932,-0.39732657707589747,0.4555643502220176,0.12501374235564358,0.1991791946630571,0.9719563841220515
-0.557292896267579,-0.39726175303086014,0.45588653011043784,0.11377060365689047,0.21349324224046107,0.9702973179707355
-0.5572626078765138,-0.39720340398677234,0.4561491293004579,0.09061301765568416,0.24321115020726972,0.9657316487752629
-0.5572479622602805,-0.3971510329499455,0.45634383864877154,0.04701326913363374,0.3043331112026499,0.9514048086651044
-0.5572491629561477,-0.39710438800619124,0.4564680821962308,-0.03737840752664763,0.4390411624814128,0.8976890955657986
-0.5572632232443269,-0.3970619646722286,0.4565267647556007,-0.28969506709117504,0.8843274831808913,0.3661170176241335
-0.5572855933613136,-0.3970183366914044,0.4565323067732183,-0.3430883467543214,0.8943967636423712,-0.28695786364454123
-0.5573124488738551,-0.39696491032206654,0.45649772820735923,-0.29406485860817544,0.780615044640569,-0.5515124758448864
-0.5573414110878063,-0.3968944291763917,0.45643258196509723,-0.2585116485824823,0.7330140897416116,-0.6291757081987858
-0.5573724975543621,-0.39680253839138163,0.45634336898767613,-0.24419167314956802,0.7240813715598569,-0.6450399942053292
-0.5574076169178096,-0.39668827437931425,0.4562347838850453,-0.24712086189747903,0.7311256683660384,-0.6359139381011873
-0.5574482157861369,-0.39655554230969764,0.4561125941549723,-0.2646310820544453,0.7453269772433706,-0.6119298059450555
-0.5574954275904777,-0.3964111623599361,0.4559863238554641,-0.294752658111542,0.7641122087560149,-0.5738060673835583
-0.5575502188105544,-0.39626227282870924,0.45586887823486966,-0.3338249804533686,0.7850625959493599,-0.5217639340415934
-0.6338312924653681,0.3338087569557574,0.39887784917378366,-0.02809945838020932,-0.00023882010053475318,0.9996051037303173
-0.633835933037974,0.3338006886611614,0.3989946359965309,-0.07834675786857391,-0.10490083084375397,0.9913917496226068
-0.6338563225441345,0.33377071012041615,0.39921006859533487,-0.09387720338939469,-0.14029849623923824,0.9856487217243244
-0.6338949757346516,0.3337162374459809,0.39955384308720215,-0.09402182341655944,-0.15146561948389708,0.9839807227968365
-0.6339465801616492,0.33363947514878456,0.4000181964257508,-0.08531833808467952,-0.1522150384171205,0.984657993044358
-0.6339979073107219,0.3335511298853035,0.40055301945032307,-0.06881309364604306,-0.14469745560251077,0.9870802421713345
-0.6340329904644536,0.3334696357009822,0.4010796545377413,-0.041826011086550104,-0.12373170530019442,0.9914338353617419
-0.6340418075321965,0.333414560217336,0.4015132625773891,0.00335448288008845,-0.07341280365808694,0.9972959980385294
-0.634026011500233,0.3333998339667375,0.40179341540647323,0.10102212253086407,0.07343071274293642,0.9921705806893405
-0.6339919805129721,0.33343306317341953,0.40190290539188794,0.4158032386859954,0.6768376605028932,0.607452424493645
-0.6339461821012912,0.3335150074988362,0.4018570241832858,0.33392181123046405,0.7214776259165968,-0.6066022249269432
-0.6338941167613478,0.33363911363814996,0.4016853951813881,0.2090247913295573,0.5469695980946997,-0.8106373389930652
-0.6338398202674557,0.3337941527190007,0.40142183672420234,0.15556316702056572,0.4740997876162364,-0.8666195776976025
-0.6337865057511887,0.33396716743239513,0.4010907168835874,0.12239742589407053,0.4271255158026917,-0.8958697806516247
-0.6337378663223472,0.3341451914927094,0.4007090059021344,0.09412879160107311,0.38302776246516623,-0.9189284541098126
-0.6336990648171106,0.3343152185042462,0.400289573487684,0.06550039724136708,0.33390223442330813,-0.9403291954461189
-0.6336716689979667,0.3344691849742998,0.3998364249256284,0.03437888062214139,0.2781115611844667,-0.9599333581570687
-0.6336592379461745,0.3345971837772216,0.39934353365877423,9.310841308825748e-05,0.2224938374477187,-0.9749340919408919
-0.6336673157583269,0.33469047764357346,0.398830089527357,-0.038810697845122366,0.17266097780894168,-0.9842163971784024
-0.633698026838678,0.3347446601940498,0.39835593196909647,-0.09137548216354087,0.12908269409656678,-0.9874148972666721
-0.6337460765676943,0.3347607986128068,0.3980135854985292,-0.22096542239404313,0.0882586340286169,-0.9712799265019456
-0.6337988789710368,0.3347458083689773,0.3979032941149992,-0.277163210196133,-0.060130552852436216,0.9589394514396803
-0.6338375709984083,0.3347144598885821,0.39809433599121113,0.008866579549879551,-0.027438169845188258,0.9995841788477009
-0.6338365038066137,0.33468889406318947,0.3985875298381242,0.07612115345272737,0.0011110685736300259,0.9970979568345585
-0.6337786182161178,0.3346852670240148,0.3993329609872137,0.11678263612291605,0.024337241344884554,0.9928592622239587
-0.6336547980343455,0.3347164794686761,0.40030037002251895,0.14536386825192243,0.04099745205118211,0.9885284794744909
-0.6334638667993572,0.3347843988848956,0.40149501408825494,0.1663594730064737,0.04942011804582935,0.9848259631393482
-0.6332068489940719,0.3348793860409309,0.40295681387466925,0.18342442513530208,0.04927368124948788,0.9817981384174183
-0.6328787833980207,0.33498555878630887,0.4047386245010159,0.20034976567748874,0.041990274692838926,0.9788241865749924
-0.632459244035228,0.33508622362396046,0.4068830579216421,0.22068747945227854,0.030325285588722044,0.9748730242790404
-0.6319088000314087,0.33516653396375007,0.4094008960764429,0.24606866879123196,0.01637477600619335,0.9691140680797374
-0.6311808434097315,0.335213982280169,0.4122813550519657,0.2748292588351159,0.0005277132969046872,0.9614929016934118
-0.630237363337936,0.33521307650408594,0.415512756277703,0.3046608399691149,-0.01707465417056395,0.9523078434908898
-0.6290600447422303,0.33514282584116817,0.4190666968295859,0.3336708797513977,-0.036361438303347156,0.9419881049198234
-0.6276483185954314,0.3349823184328148,0.4229026506697376,0.3606653156229824,-0.05751607735963679,0.9309202065438986
-0.6260152397471856,0.3347085235890303,0.4269734563582481,0.385373589480817,-0.08034291085869269,0.9192563370493688
-0.6241753665598927,0.3343004635431189,0.4312346269669854,0.4080332390603561,-0.1043733236283186,0.906981303631278
-0.6221378547655905,0.33374473350271533,0.43563968415486476,0.4292670337075198,-0.12860356072455928,0.8939747971508545
-0.6199083181919856,0.33304008931486967,0.440147888995285,0.44879361718955113,-0.15266097743250254,0.8804992419867671
-0.6174998891627954,0.33218168095394696,0.44473448803360177,0.466356809706174,-0.17624653016415076,0.8668612845465972
-0.6149302995206267,0.33117349748345604,0.4493649983576199,0.4813793178587235,-0.19916394518696767,0.8535851892315334
-0.612224697128165,0.33002084717275515,0.4540220964094257,0.4934037668682805,-0.22176644701204581,0.8410543179960763
-0.6094180853261508,0.3287279339357308,0.45867689375326437,0.5019664482735029,-0.24463717201473914,0.8295675613693653
-0.6065486933613597,0.3272927298622285,0.4633144969755968,0.5071632789379595,-0.26817088969100206,0.8190664090409482
-0.603654323277971,0.3257147551024641,0.4679064098118853,0.509647979929776,-0.2919516030126399,0.8093350344893322
-0.6007634025088061,0.3239994494382868,0.47244354774196984,0.5099227296910352,-0.3158333002325684,0.8001425724260943
-0.5978999875007289,0.3221541878021028,0.4769046093104938,0.5086141683731351,-0.33986334868834617,0.7910780820806804
-0.595078211796332,0.3201922945139887,0.48127651590416953,0.5067355002822481,-0.363673996257974,0.7816395314973872
-0.5806464182014769,0.30788265859313846,0.5028293434388453,0.5015575544671251,-0.4995649658314174,0.7063107421459849
-0.5782400147363826,0.3054269094833932,0.5061787718943491,0.5008205515117302,-0.5286997080393274,0.6853140841268449
-0.5759129913098634,0.30290292619200543,0.5093253684012204,0.49993910603750047,-0.5601289104931817,0.660542575375839
-0.5736610440768383,0.3003065735751399,0.5122690163632769,0.4995615734662122,-0.5940304855196047,0.6305283630331827
-0.5714792059587749,0.2976215708436318,0.5149919774685445,0.4998396377912864,-0.630263147433298,0.5940780264242641
-0.5693449814729739,0.29483183269039737,0.5174881545492155,0.5016061127104644,-0.6676756579657258,0.5500913773651902
-0.5672288084753003,0.291927120227964,0.5197389249567208,0.50455376413551,-0.7049208268673965,0.49850990656683464
-0.5651114662361862,0.28889470083864854,0.5217305497318622,0.5075503870744602,-0.7407024916673206,0.4401731743511735
-0.5629844623903696,0.28572826769909604,0.5234541248270157,0.5090643419919434,-0.7741853246464262,0.3761523345858927
-0.5608555017333396,0.28242914421073073,0.5248905523117349,0.508207440288937,-0.8042791764458693,0.30799383755283277
-0.5587333853051109,0.2790122895710005,0.5260392094410038,0.5044820153678503,-0.8303591150309361,0.23664664851933281
-0.556638534258048,0.2754922663760608,0.52687804556924,0.4975835045276098,-0.8520161409671275,0.16272415786694291
-0.554582884371073,0.2718909657164824,0.5274080188004033,0.48866488938113534,-0.8681128244181513,0.08710195156747519
-0.5525785339627513,0.268239959593659,0.5276129004885731,0.47828784302372773,-0.8781561538305217,0.009083430260383583
-0.550631104060431,0.2645722215383676,0.5274958060081023,0.4674090520869447,-0.8812123451059213,-0.07066527336752082
-0.5487448494380449,0.26092638335260143,0.5270436885562859,0.4565521870984979,-0.876528477230227,-0.15250550501551666
-0.5469164870063341,0.2573466125022246,0.5262573439794908,0.4455443445781918,-0.8637135654046961,-0.23556127430097087
-0.5451425524385408,0.2538739083200127,0.5251394136069628,0.43335951065038913,-0.8425544494294154,-0.31984611030236076
-0.543427856796147,0.25053435553810666,0.523685599454442,0.4184951576135672,-0.8135742539035541,-0.4036814789401053
-0.5417791930037738,0.24734729547231987,0.5219040407220961,0.399947231917226,-0.7776873318018407,-0.4850202321931347
-0.5402085406231696,0.2443251721401197,0.5198017566468334,0.37629704765523103,-0.7366903877934069,-0.5618610188104854
-0.5387350193036243,0.24146189993960618,0.5173864527386572,0.34771477422593233,-0.6926102147221247,-0.6319695611717238
-0.5373717951129633,0.23875338020702952,0.5146675591791793,0.31463284291143445,-0.6475452817296294,-0.6940398275828006
-0.5361320161481541,0.2361889418647981,0.511669423820027,0.278621331045995,-0.6030881941320513,-0.7474321266741879
-0.5350282959166501,0.23375706650832168,0.508405325829127,0.24106814433810864,-0.5606453352090593,-0.7921887135611706
-0.5340694677163957,0.2314374748654557,0.5048789757624699,0.20427703452313575,-0.5213571709009631,-0.8285273643740305
-0.5332490705177635,0.22921607566085114,0.5010952016088263,0.17055367023871668,-0.48653343662129267,-0.8568527648421155
-0.532555229508287,0.22707063465190425,0.4970594025525849,0.1411460370199043,-0.4573960829852478,-0.8779901021670621
-0.5319685263288854,0.2249755449320377,0.49278978617159674,0.11679967929159961,-0.434338060514172,-0.8931451640725413
-0.5314639788909666,0.22291579237663953,0.4883255993341137,0.09692387328824054,-0.41786968075561726,-0.9033220315546409
-0.5310314180099052,0.22087140397595167,0.4837250612951335,0.08052577092933674,-0.407337939318882,-0.909720508402269
-0.5306652336958746,0.21883567287091554,0.47904533524196186,0.06643596580272094,-0.4017727280073087,-0.9133263039447758
-0.5303658580662286,0.216802010593486,0.47434286088684763,0.05389631407354216,-0.40019379584312276,-0.9148443108518297
-0.530127459956141,0.21477756312769208,0.4696614354780194,0.04239331796982668,-0.40183097145723917,-0.9147320246767577
-0.5299510613966604,0.2127526838540153,0.46503616431766204,0.03188610769378414,-0.40625118730778004,-0.913204932612149
-0.5298272371882174,0.21072692189543923,0.4604860019084528,0.022839339908977793,-0.41268699343953896,-0.9105865197763231
-0.5297463989829048,0.20869328886443905,0.4560180060443242,0.015409915385382026,-0.42115333265694965,-0.9068585363218233
-0.5297014466087109,0.20663444488625454,0.4516328327521366,0.009837363981898302,-0.4308852459639213,-0.9023531077579877
-0.5296790806793904,0.20454479788768942,0.44732719280080363,0.006218657052782302,-0.44070793545316633,-0.8976290124171943
-0.5296655621079635,0.2024271786434528,0.44309624926940583,0.004251462806168254,-0.44974687487337117,-0.8931459419409821
-0.5296532249638404,0.20028977723349106,0.4389351177068976,0.0035907567645358162,-0.45699519558516666,-0.8894619146865892
-0.5296412753066503,0.19814073324185216,0.43483832231103137,0.004017779156716045,-0.46161110215566764,-0.8870733046469597
-0.5296228307451563,0.19600697223595864,0.43079577206683006,0.00509290504643799,-0.4632334744256599,-0.8862216486239317
-0.5295954533411997,0.1939058851615048,0.426802326507533,0.005840637046209745,-0.4628217057805674,-0.8864321494718365
-0.5295599391319575,0.19184626333711874,0.42286549355863734,0.005080832157093625,-0.46086534165080595,-0.8874555324125695
-0.5295225854147481,0.18984314763885854,0.4190039019084239,0.001694462681955019,-0.45714336102993874,-0.8893914077966295
-0.5295002137337035,0.18791583189164482,0.41524193101649975,-0.00553864705899956,-0.4518066652522034,-0.8920986832309747
-0.5295223385431378,0.18607590456621692,0.4116052460376703,-0.017160901263227748,-0.44469227333795935,-0.8955190034283759
-0.5296084292587783,0.1843391308813556,0.4081002217183949,-0.032371368037610385,-0.43484356365136234,-0.8999239799462825
-0.5297651721205412,0.18272507082962464,0.4047221935098869,-0.04978193400069633,-0.4220563222625578,-0.9052017564528664
-0.5299902378945964,0.1812355300435259,0.40146187901102975,-0.06720577506449608,-0.40702171499554823,-0.9109427574332336
-0.530271790349593,0.1798609051038108,0.3983105068116108,-0.0821901254730319,-0.39019831171321395,-0.9170551023852845
-0.530589997741024,0.17859902108552378,0.39525896179145237,-0.0928172130512344,-0.3720003024726394,-0.9235803916940131
-0.5309233280175562,0.17744857705236,0.39229854564444555,-0.09861900787030171,-0.35402601462146566,-0.9300214364507515
-0.5312519184287771,0.1763959296741999,0.3894160214749256,-0.1000931725445816,-0.3382022917652215,-0.9357353080090076
-0.5315574479774297,0.17542658554803542,0.3865974248464476,-0.09861180539386205,-0.3259381924720281,-0.9402340168942146
-0.5318351066704906,0.1745196700608711,0.38384227034247037,-0.09654393250436981,-0.3186257878733272,-0.9429511527108354
-0.5320930351562562,0.17364662503993752,0.3811619649410317,-0.09618747739233292,-0.3171819686079399,-0.943474201016059
-0.5323451889338175,0.17278758781486842,0.3785716893649955,-0.09888028752573617,-0.32104238610391617,-0.9418887806230265
-0.5326036488977034,0.1719382624430201,0.37608207604425614,-0.10494536456476838,-0.3291793346312835,-0.9384175169443895
-0.5328776231572233,0.1710937572817958,0.3736963223182919,-0.11368551870044791,-0.34085934352795766,-0.9332151470949772
-0.5331699746398332,0.17024758426352232,0.3714141308625094,-0.12341094056586624,-0.35524226578566154,-0.9265919664815347
-0.5334779840508586,0.16939382704404068,0.3692346084097225,-0.1326963707339932,-0.37123562712750424,-0.9190080425900935
-0.5337970238338924,0.16852567405154745,0.36715664796156855,-0.1407025582387252,-0.38719467389282036,-0.9111987020480827
-0.5341216694952834,0.16764158559144504,0.36517196633794924,-0.14692586089784673,-0.40039536215024746,-0.9044867856237585
-0.5344462024549088,0.1667533455318051,0.3632609676505051,-0.1512084311364942,-0.4078743977323889,-0.9004301672132498
-0.5347686848420455,0.16587715286229618,0.3613975132203372,-0.15344418734633083,-0.40794733027860164,-0.9000188092968866
-0.5350906710693013,0.16502528645362116,0.35955819771993647,-0.1531705844447963,-0.40035326534271093,-0.9034688898851296
-0.5354092906616926,0.16421053110905523,0.35772061690167434,-0.1498909312420909,-0.386585862225544,-0.9099912526275796
-0.5357180814431902,0.16343554137219005,0.3558613921922208,-0.14418106703409903,-0.36970206722593374,-0.917895528585786
-0.5360110741563172,0.16269373967660186,0.35396032025229907,-0.13755091516693171,-0.35259743550409434,-0.9256104981106663
-0.5362879786003454,0.16197501330400574,0.35200335896512136,-0.1317124576207454,-0.33697243737901145,-0.9322560833560442
-0.5365551134114213,0.16127340467660073,0.34998507532903156,-0.12793509934534258,-0.32396590601728054,-0.9373786332608077
-0.5368259979152107,0.16058051849816005,0.34791087488844674,-0.12647029999694515,-0.31467165613952636,-0.9407374830637346
-0.5371103180773791,0.15989178401467116,0.34579144502530534,-0.12597539107813222,-0.309595252855729,-0.9424865942027552
-0.5374072168705543,0.15920238827058544,0.34363391714131897,-0.12413195186382811,-0.30922868816312604,-0.9428514606996101
-0.5377057523251698,0.1584992287528039,0.34144010390299834,-0.11919535939883699,-0.31396742029589864,-0.9419219316326171
-0.5379903458603198,0.15776628281303584,0.3392137374318662,-0.11111615060478955,-0.32404681102054533,-0.9394928766851767
-0.5382476851478977,0.1569910987706127,0.3369614977791486,-0.10148144439028654,-0.33948777678841774,-0.935120080981966
-0.5384737173771146,0.15616444866804366,0.3346969631008482,-0.09274638058769477,-0.3604992578563873,-0.9281370555973274
-0.5386757673211383,0.15527672396418193,0.332439280109617,-0.08707307833454911,-0.3875385136326866,-0.917732084805099
-0.5388680946256731,0.15432073872361124,0.3302136839345653,-0.08507775924486899,-0.4208249540118248,-0.903143473077682
-0.5390658834017681,0.153282470388469,0.3280439816950613,-0.08573768241863808,-0.46034660859262094,-0.8835892992622495
-0.5392763718735115,0.1521443422735619,0.3259456743153038,-0.0868037337014659,-0.5049763159501919,-0.8587572603156592
-0.539494292664828,0.15089431714007764,0.32392497587835345,-0.08634631727148123,-0.5533232212611086,-0.8284791646788003
-0.5397067345107558,0.14952645308432203,0.32198495036530916,-0.08375801589352781,-0.6042746097814689,-0.7923615278059839
-0.5399034300042904,0.14803773092329328,0.32013516285720267,-0.07954992212761278,-0.6570520552775911,-0.7496361827880137
-0.5400812019749835,0.146427395453916,0.31839231877765145,-0.07503773284867557,-0.7111728428111144,-0.6990010917708849
-0.5402455272235726,0.14469198658308113,0.3167820969648329,-0.07153427298926013,-0.7656840548996697,-0.639226701460677
-0.5404061590974059,0.14282208170517974,0.31532721825103255,-0.06946682486849047,-0.818618724062367,-0.5701208160181424
-0.5405694334386316,0.1408097403980076,0.3140421425679939,-0.06825887997900161,-0.8670272104420872,-0.49356310807942777
-0.5407359272606298,0.13864741929408794,0.31293238148949387,-0.06679242461473882,-0.9080701737121987,-0.41345777490377594
-0.5409047169904341,0.13632759024106963,0.3120008778832757,-0.06395550376363417,-0.9399928646008622,-0.3351463979185883
-0.5410728532240702,0.1338472266038467,0.31124329698190417,-0.0591096165028267,-0.9627207165453292,-0.26395998782265606
-0.5412340715434717,0.13120357013386375,0.3106438643188899,-0.0522243045442631,-0.9775629958059623,-0.20406668333106243
-0.541381492492206,0.1283906250910789,0.31017534892731874,-0.04362053684050653,-0.9864992050705598,-0.15784982470975248
-0.5415055250273043,0.12541210907235878,0.3097988468430836,-0.034183720932302424,-0.9915596708833336,-0.12506355304787017
-0.5415978394655452,0.12227018700389906,0.30947442394686103,-0.025253371627336724,-0.9943373093975326,-0.10322588028942695
-0.5416581616326325,0.11896167151774023,0.3091738891055121,-0.018545341514072753,-0.9959006016237142,-0.08853283003299196
-0.5416960799789727,0.11548267330569169,0.3088866982905603,-0.015483641388825114,-0.9968790485224618,-0.07741071932422339
-0.5417276333822223,0.11183470352231979,0.3086143934424736,-0.01674335532612999,-0.9975876772358836,-0.06736828838212668
-0.541776391237763,0.10801391869957322,0.30836783756299097,-0.022054715920485267,-0.9981184744698289,-0.05721101666364722
-0.541865475293805,0.10401955060377899,0.30815817474726553,-0.029868131126454346,-0.9984300204745574,-0.047385535326593564
-0.5420062578527169,0.09986401808677191,0.30798686381182655,-0.038257151892152536,-0.9985141866927318,-0.038804758760405005
-0.5421988959456109,0.09555129134156191,0.30784780018571595,-0.045499997516506026,-0.9984399683294525,-0.032363248728764636
-0.5424317139836199,0.09109164871243962,0.3077288476142425,-0.05059674011668473,-0.9983186243916145,-0.028282398809143513
-0.542687393398014,0.08649512812156043,0.3076165243692267,-0.053289127963352306,-0.9982310987515063,-0.026361758785523298
-0.5429486733069473,0.08178243955581581,0.30749889843261075,-0.05430712581377401,-0.998190297355793,-0.025823755547948385
-0.5432103516471222,0.07696143772349082,0.307373034812186,-0.054860507733986145,-0.9981648442801742,-0.025637245060749665
-0.5434757014960018,0.0720453855307819,0.30724245136030703,-0.05571033699867444,-0.9981296229655634,-0.025171692635103386
-0.5437512198705704,0.06704482648532273,0.3071118970733241,-0.057215438802433474,-0.9980726110211391,-0.0240303285889075
-0.5440448721140585,0.06196164076711548,0.30698847587515044,-0.05919873661670497,-0.9980024200444866,-0.022060806157848094
-0.5443598595731247,0.05680122436220202,0.3068763522563254,-0.06105785819487659,-0.9979460675117043,-0.019379997176968793
-0.5446936883749164,0.051565307545870964,0.3067800155136773,-0.06196365124752335,-0.9979459932721814,-0.016257319461550398
-0.545035942898143,0.04626121279480401,0.3067004106837183,-0.06128305814943568,-0.9980360227319508,-0.012980143036269529
-0.545376241536215,0.04088751610550294,0.3066403464108477,-0.058734068400916654,-0.9982259010761819,-0.009765225533560752
-0.5457006545165066,0.03545766169129124,0.3065994105359218,-0.05415983187596601,-0.9985078324229376,-0.006987216986317821
-0.5459950490641187,0.02998032618179332,0.3065735622596469,-0.047723367324473374,-0.9988487828275104,-0.004856877105093055
-0.5462473511751722,0.024468573202228467,0.3065568303883407,-0.03986363744339826,-0.9991994128640239,-0.003379902657012449
-0.5464497475644032,0.01893283077177454,0.3065443395565961,-0.031084579302974705,-0.999513809282424,-0.002427752725317338
-0.5465986300634265,0.013379270822482256,0.306533544299864,-0.02179487149759873,-0.9997608411913103,-0.0018011098930142343
-0.5466935622803331,0.007806727153620112,0.3065239507217008,-0.012294327256061778,-0.9999235719125118,-0.001303783357990141
-0.5467362675100897,0.0022122839706298723,0.30651772971016,-0.0027530922467499767,-0.9999958998061657,-0.0007879428519955409
-0.5467269174241686,-0.0034046638465430384,0.3065157535164328,0.006896512892102913,-0.9999761690056852,-0.0003154847736399441
-0.5466631298155251,-0.009042425002427433,0.30651635602725963,0.01670286163329615,-0.9998604929011209,9.564929003389282e-05
-0.5465413773064575,-0.014690814379612626,0.30651715986632727,0.02656425310170525,-0.9996469107620765,0.0006279020511506202
-0.5463601317893838,-0.02033481496465643,0.30651850024634847,0.03611107969732706,-0.9993465218532696,0.0015871933927626804
-0.5461220930306869,-0.02595286240029843,0.3065235753536807,0.04479822971952119,-0.9989905151495325,0.003327049033113538
-0.5458364176826591,-0.03152334653619422,0.30654022184021096,0.052144431589932316,-0.9986215750225604,0.0059923412472700725
-0.5455173935271403,-0.03702772022942297,0.30657731391179466,0.05799549388576651,-0.9982725031989409,0.009409146925539827
-0.5451799226072261,-0.0424564382848022,0.3066404971336259,0.06274035032048667,-0.9979450497276305,0.013012538790707077
-0.544832729683348,-0.04780390477383993,0.30672749818216316,0.06721194992759412,-0.997608726139107,0.01610538164834662
-0.5444751011308911,-0.053070809580536324,0.30683055715591273,0.0724339186743493,-0.9972084792621482,0.01812667407859404
-0.5440968908324123,-0.058253627034674446,0.30693822106860535,0.07924245960751304,-0.9966778430928364,0.0188124874262574
-0.5436829620826332,-0.06334797468605892,0.30704006703613446,0.08784893802062642,-0.9959643762359088,0.018371863206147282
-0.5432217450998685,-0.06834496634440221,0.3071306084633927,0.0977520280396961,-0.9950590651360319,0.017378086912337894
-0.5427089035720994,-0.07324355696885618,0.30720927120364877,0.1078412626420466,-0.9940292018822363,0.01661950291475448
-0.5421497669172783,-0.07804611412167445,0.30728077826593986,0.1168546752627132,-0.9930075312302032,0.016763883480353143
-0.5415571978394395,-0.08276205323570718,0.30735250267953335,0.12380451198616672,-0.9921385167073871,0.01826489741370091
-0.5409465089082823,-0.08740763427366718,0.3074342736071557,0.12818568659013463,-0.9915205821957643,0.021339279172181935
-0.5403319256106789,-0.09199373282699386,0.3075340062724199,0.13000065258146917,-0.9911740527944995,0.025958185516686872
-0.5397241814718898,-0.09653434747349195,0.30765930314794826,0.12956852999600071,-0.9910542082500697,0.031993004618242074
-0.5391311234103064,-0.10103065483369884,0.3078146243944126,0.127249443959038,-0.991094841948087,0.039224906322540116
-0.5385582531762408,-0.10548555803177918,0.30800398074351837,0.12324989532325063,-0.9912374558893495,0.04751599041183394
-0.5380127760621967,-0.1098922302547162,0.30823139323238147,0.11766813080214054,-0.9914363466513217,0.05664081154265547
-0.5375026544031253,-0.11424698165050153,0.30850016661720575,0.11058416093956092,-0.991654603891734,0.0662743534832405
-0.5370353781796288,-0.11854133282609074,0.30881113195011445,0.10219309071094121,-0.9918595800853769,0.07596805646984318
-0.5366175238380604,-0.12276912948300411,0.3091625206716052,0.09299872012871627,-0.9920345467611545,0.08496291006557917
-0.536251698504956,-0.1269321951219437,0.3095491260795475,0.0839086304690667,-0.9921856516626594,0.0923416177438406
-0.5359344742304665,-0.13102960560576354,0.30995935913082284,0.07614819664077978,-0.9923398682394379,0.09727814785907642
-0.5356558475293798,-0.13506787606698478,0.3103793036850082,0.07094472438717397,-0.9925200876409065,0.09935150583114111
-0.5353996723291239,-0.13905271736846161,0.3107935312790828,0.06922808090520013,-0.9927090167978073,0.09867259387750008
-0.5351463897806507,-0.14298295292233865,0.3111876483782,0.0715429344949364,-0.9928081984018615,0.0959869246819764
-0.5348772622837591,-0.14684988401280374,0.31155338823685835,0.07792430770498045,-0.9926502091716355,0.09259246459732996
-0.5345770772770191,-0.15064729636417762,0.31189296241635794,0.08799433909119084,-0.9920661231851621,0.08978754655444979
-0.5342344906177287,-0.15436831466230033,0.31221327667495086,0.10114014286684475,-0.9909012698600758,0.08879946447227861
-0.5338421070727796,-0.1580056360263651,0.3125249802587389,0.11661804818695136,-0.9890303813011532,0.09065944904068808
-0.5333951229669807,-0.16155874772504122,0.3128411822237361,0.1336150105454151,-0.9863496856820129,0.0962357860254863
-0.5328917139715681,-0.16502308027988222,0.3131731470116952,0.15133790970350974,-0.9827063185666829,0.1067011177808806
-0.5323357409603822,-0.16838002916380493,0.3135325919481873,0.16892160979881646,-0.9777888670846545,0.12407425658969085
-0.5317359417425839,-0.1716046816861962,0.3139380363174166,0.18510367417136211,-0.9708908674389157,0.15201168814262941
-0.5311069834808257,-0.17466764148570252,0.31441837774882725,0.1981388677997696,-0.9604531539520316,0.19562905748027457
-0.5304719408386507,-0.1775272889508247,0.31501359146809166,0.20557338680243395,-0.9429628089354241,0.2618410273490228
-0.5298618101602875,-0.18013687766543285,0.31577746286618075,0.2037527043076106,-0.9111748135943388,0.35811352188748363
-0.5293134933602716,-0.18244968524264746,0.31677294767856956,0.1879463513505552,-0.8525518929649157,0.48767964773604483
-0.5288643083054121,-0.18442149247233391,0.31806135457505036,0.1541534946144166,-0.7520524255145464,0.6408227909304184
-0.5285447637038522,-0.18601891265072595,0.31969253174905266,0.10436267312677171,-0.6058044667851562,0.7887391079951515
-0.5283704103264146,-0.18723295861811384,0.3216980169343905,0.05033245965641052,-0.43656742843099544,0.8982625028008703
-0.5283350262950404,-0.18808454626054216,0.3240814723449769,0.005867845682346014,-0.2789577813152368,0.960285439143346
-0.5284117020860372,-0.18861031619957305,0.3268161817387272,-0.022554000716734406,-0.15212193484260622,0.9881043639167937
-0.528558581452287,-0.1888551040264074,0.32985855091067834,-0.03532097275561561,-0.05806174390019054,0.9976879586217655
-0.5287281301026031,-0.18886703662137402,0.333158926389769,-0.035810326592142186,0.009070921698469443,0.9993174364979851
-0.528877420534752,-0.18869294067929432,0.33667184739978384,-0.028059918218845542,0.05636088063117563,0.9980160780889406
-0.5289781177119687,-0.18837131369745896,0.3403629268760446,-0.015939302065261198,0.08918727324018445,0.995887327433005
-0.5290167952630699,-0.18793841299262753,0.34421264155529624,-0.00280991351610111,0.11098120955166547,0.9938185324859268
-0.5289918753464394,-0.18742880229175596,0.34821107159779885,0.00850409042516692,0.12438643665433505,0.992197407183912
-0.5289153527341208,-0.18686275017059634,0.3523591502036794,0.0161595768254077,0.13125944679878981,0.9912163364790247
-0.5288074367793654,-0.18625647755477467,0.35666554120807115,0.019336182329142432,0.13249865956764612,0.9909945596549514
-0.5286920863898211,-0.18563154321973854,0.361146104863311,0.018153389772491042,0.12881897945026952,0.9915019540944733
-0.5285937418023032,-0.1850102630201008,0.3658168889555906,0.013530543769293774,0.1208709913291015,0.9925760060773318
-0.5285304103113677,-0.18441298303371764,0.3706787492710329,0.006566832878933575,0.10894237706040835,0.9940263754983405
-0.528509641182254,-0.1838683551775545,0.37572705376591137,-0.00172109003037649,0.09340325240382918,0.9956268730249771
-0.5285356282498237,-0.18339989715349345,0.38095507340595375,-0.01067897560612613,0.07502315655870244,0.9971246087926885
-0.5286123565894963,-0.18302356803812483,0.3863450579731733,-0.019947754510456606,0.054205085367926294,0.9983305543807856
-0.5287443580573938,-0.1827601443324604,0.3918834660568491,-0.029167308660480555,0.031050815018679463,0.9990921453960991
-0.5289363412764302,-0.1826308319920597,0.3975654963660195,-0.03796430639030626,0.005873109305268267,0.9992618365710717
-0.5291896515425563,-0.1826520346634221,0.403379416782306,-0.04574296006298916,-0.02083896867879088,0.9987358604701646
-0.529495084512708,-0.18283988210641489,0.409311824423056,-0.051986463382888315,-0.048754019797589705,0.9974569931473315
-0.5298403242395447,-0.1832123444556635,0.41535747738027184,-0.056374058182234704,-0.0771617775676264,0.9954235408340864
-0.5302119918533174,-0.183775647500592,0.4214989196533231,-0.05889153778476741,-0.10499248286380403,0.992727739775332
-0.5305967654879776,-0.18452677225929617,0.4277164469366841,-0.05979302593808044,-0.13143777677217144,0.9895195323420134
-0.5309849994628673,-0.18545910822770062,0.4339957507367652,-0.05946908639735054,-0.15584482533018595,0.9859897657586859
-0.5313693635199295,-0.1865552021476497,0.44030703304370433,-0.05829770478716104,-0.1773986068249085,0.9824108671595254
-0.5317428383646924,-0.18778999673682878,0.4466247336300779,-0.05673905444561648,-0.19552708858147524,0.9790555843931791
-0.532100058343282,-0.1891339475126436,0.45293347625712166,-0.05536937784413071,-0.21025391994909134,0.9760776204499286
-0.5324456117024893,-0.19055962773779103,0.45921777728118,-0.05469337357865796,-0.22176004141717742,0.973566186202683
-0.5327870489337029,-0.19203743153524033,0.4654667562858401,-0.054845849916794163,-0.23062681478931982,0.9714953448406417
-0.533134146119386,-0.19354624042729004,0.47168564266743085,-0.05569224900278273,-0.23808009111005762,0.9696474842013663
-0.5334955750353532,-0.19507995140497034,0.47786801162048853,-0.05660972380859101,-0.24576250146797302,0.9676756336926747
-0.5338701526579692,-0.19664210401350563,0.48399452860758674,-0.056479980345651534,-0.2552871749572737,0.9652142094491196
-0.534243328795414,-0.19824827500170147,0.49004700454026534,-0.054177034809691986,-0.26788654005546286,0.9619260109573617
-0.534591420570525,-0.199920945117269,0.4959963551090234,-0.04913091512331544,-0.2842718539429072,0.957484029232346
-0.5348904489825449,-0.2016835986748743,0.5018104191641028,-0.041325523081263395,-0.3043703489729459,0.9516569191721075
-0.5351207912083815,-0.20355082670470828,0.5074754891654656,-0.031164437407748397,-0.32768812130952846,0.9442718215607677
-0.535271453974004,-0.20553411758124435,0.5129927055118426,-0.01962980733646417,-0.3538114668278306,0.9351107509835785
-0.5353439456782049,-0.20764283883852966,0.518366058134432,-0.00791486095861348,-0.3826431909779154,0.9238622967597739
-0.5353461677161321,-0.20988784687378037,0.523598842707303,0.0031805449829628903,-0.4142809255601823,0.9101435045368449
-0.5352891099963806,-0.21228726586574798,0.5286883385272084,0.013387089635769548,-0.4489909468846703,0.8934360164257378
-0.5351827620226303,-0.21486425654291297,0.5336227432293148,0.023054609956467104,-0.48685738223777947,0.8731771723541174
-0.5350328849861816,-0.21764301147918597,0.5383915856251507,0.032947883942464645,-0.5271706824102833,0.8491204323008547
-0.5348354756367918,-0.2206455525043558,0.5429944364815819,0.04384233666502354,-0.5683343509905007,0.8216288182628195
-0.5345760602129432,-0.22388844126723448,0.5474359520669875,0.055995287560530016,-0.6084831995529715,0.7915887338970863
-0.534238780390738,-0.22737396538441285,0.5517198830371408,0.06899067700514232,-0.6457483236817259,0.7604271095566052
-0.5338148015572882,-0.231085806446077,0.5558464220682207,0.08188409459697621,-0.6789790500219007,0.7295768942910613
-0.5333083717582002,-0.2349874134165639,0.5598113945332561,0.0935242552404332,-0.7078443698903777,0.7001496709248791
-0.5327375347799719,-0.23902542735202933,0.5636075436290436,0.10298866689940618,-0.7328401998560756,0.6725612061107824
-0.5321260261844281,-0.24314981888872392,0.5672281018971855,0.10974480516476488,-0.7549478213075257,0.6465368240420402
-0.531495401461214,-0.2473222067228369,0.5706698051323945,0.11354909958478959,-0.7754110940708187,0.6211636154632524
-0.5308634773544961,-0.2515222164390294,0.573928691574632,0.11439369028184242,-0.7956432409261178,0.5948663016109464
-0.5302457815226548,-0.2557469481000375,0.5769945913850157,0.11228899264184708,-0.8167492997079333,0.5659609205219734
-0.5296582763705739,-0.26000218595019325,0.5798525812342037,0.10723021132807026,-0.8392674037605504,0.533040248727582
-0.5291158556253447,-0.26429986305556535,0.582482325144608,0.09919227726071543,-0.8630122100797814,0.49534918732652056
-0.5286341091663054,-0.2686494318993848,0.5848635053983119,0.08843941013855512,-0.8872154289111016,0.4527993522924197
-0.5282232961208992,-0.2730639628772691,0.5869870829784971,0.07583815423341704,-0.9109157451584748,0.4055626703542237
-0.5278890445988944,-0.277552122451988,0.5888505137975818,0.0626570931735415,-0.9331800126197449,0.35390557034617953
-0.5276296794457666,-0.28211926936552,0.5904479953703374,0.05039879911410307,-0.9532162758711038,0.29805820314542614
-0.5274328112024115,-0.2867660608346483,0.5917677588449782,0.04018846277418141,-0.9704582961744292,0.2378982615448716
-0.5272803039590128,-0.29148105862278273,0.592788838392006,0.03243001272437001,-0.9843968422263,0.1729484064384126
-0.5271532195150627,-0.2962443587730465,0.5934785535071418,0.026884664887032717,-0.9942657946884608,0.10350238792624741
-0.5270385774662295,-0.30102764720482944,0.5938116764782306,0.022395857295539744,-0.9992805208225846,0.030608271439956522
-0.5269339748260572,-0.30579379881442137,0.5937838524471036,0.017462945289991063,-0.9988356466478533,-0.04497106322251336
-0.5268509439762681,-0.3105053114167594,0.5933885126706371,0.010878045871011448,-0.9924767318541107,-0.12194918960867154
-0.5268039769547136,-0.31512899496666463,0.59262927945365,0.0020312609439532723,-0.9800360585440402,-0.19880945131567587
-0.5268053044141923,-0.31963713053969334,0.5915218386673609,-0.0093149528690807,-0.9615226502036519,-0.2745677053085313
-0.5268682575972683,-0.3240039967130846,0.5900763923715523,-0.022699964144809237,-0.9371902831843275,-0.3480791357331037
