-0.5483962475776254,-0.3375733183917253,0.5406393123226063,0.1931256206922231,-0.9284478291560267,-0.31731234323250773
-0.547870675439433,-0.3400945933246882,0.5397493098599344,0.19424124936970685,-0.9215349146656452,-0.33621977647883444
-0.5473422219872477,-0.3425899267391022,0.5388092273889957,0.1953740474603027,-0.9141982867858008,-0.3550640421344943
-0.5468106792605228,-0.34505842601473535,0.5378190784986734,0.1964640449396484,-0.9064701986521362,-0.373782902232711
-0.5462762785279385,-0.3474983487497973,0.5367801650924293,0.19742498700453848,-0.8983945137163297,-0.3923145067807936
-0.5457396901631478,-0.3499076507517342,0.5356945749226958,0.19815506954442205,-0.8899970894650703,-0.41065770315135786
-0.5452020710646786,-0.3522839373822931,0.5345649047772478,0.19853606817705577,-0.8812767799729474,-0.4288760505242846
-0.5446651118276792,-0.3546244257301216,0.5333932847323022,0.19845161921514465,-0.872217514895462,-0.44704984234475664
-0.5441307905667556,-0.3569267384894198,0.5321809098412784,0.19780583749821629,-0.862817378227232,-0.4652085795433215
-0.5436016106078253,-0.3591881293914681,0.5309282661848611,0.19653628527286934,-0.853090213264674,-0.48333278039377187
-0.5430802805132751,-0.36140530144746486,0.529637542996104,0.19459528190382372,-0.8430541593388939,-0.5013904273938249
-0.542569540841252,-0.3635748433206003,0.5283116914356176,0.19193612708217955,-0.8326995387253396,-0.5193958041102181
-0.5420719274707929,-0.3656939880629045,0.5269540209024788,0.18850690649612398,-0.8219986293124825,-0.5373857084177638
-0.541589783669079,-0.3677601256827187,0.5255679982571442,0.184247058421924,-0.8108884131218757,-0.5554394682839475
-0.5411256589946503,-0.36977103308642206,0.5241556779345791,0.17909867326494253,-0.7992834199144387,-0.5736459534282592
-0.5406820243093262,-0.37172512356939075,0.5227175875864354,0.17301911241621148,-0.7871185992076558,-0.5920377500802496
-0.5402612439085792,-0.3736209106565112,0.5212543054958887,0.1660007301370035,-0.7743564510912828,-0.6105864756504975
-0.5398651811991002,-0.37545679992052455,0.5197677363369604,0.15805328024906556,-0.7609898077749389,-0.6292167139111706
-0.5394953325264262,-0.3772317660156166,0.5182600454959161,0.14916990378874162,-0.7469975828739974,-0.6478757218665188
-0.5391526987581986,-0.3789439401635822,0.5167363998178662,0.1392109438735633,-0.7322373768214733,-0.666669886144139
-0.5388399489769709,-0.38059609215222157,0.515190951585387,0.12842019004502944,-0.7168951535687524,-0.6852514819965246
-0.5385582605228582,-0.38218725487847865,0.5136259623304291,0.11678297706585594,-0.700908971882117,-0.7036251483586907
-0.5383088413607691,-0.383716753473027,0.5120429049161377,0.10430467239830446,-0.6842345892876058,-0.7217642012030687
-0.5380926807423513,-0.38518397413670463,0.5104437559695196,0.09098660547489756,-0.6668551330065419,-0.7396118368488857
-0.537910425057766,-0.38658848841166804,0.5088312873418179,0.07686786430778711,-0.6488488003603583,-0.7570248118177394
-0.5377623025070519,-0.3879307240250404,0.5072085423614479,0.06198718194313071,-0.6303001656173419,-0.7738729162449739
-0.53764852019312,-0.38921106731428723,0.5055785181205217,0.046390399343887306,-0.6113023235671705,-0.7900363283103461
-0.5375692430722717,-0.39043006038355804,0.5039436750010438,0.030099153426841628,-0.5919434523526742,-0.8054172770556792
-0.537524744457518,-0.391588561897477,0.5023055229659734,0.01311204968783704,-0.5723152765334548,-0.819928837399575
-0.5375152075120079,-0.3926874777780279,0.5006661703658112,-0.00457249553614519,-0.5524857244476484,-0.833509817918259
-0.5375407873617862,-0.3937277875153225,0.49902866196433293,-0.02295503718661723,-0.5325459144057457,-0.8460897797027862
-0.5376013994954311,-0.3947110104725586,0.4973966040594325,-0.04203485690226061,-0.5125595441053301,-0.8576221688784302
-0.5376971312499607,-0.3956389411983705,0.49577318507051976,-0.06180377892775982,-0.49261463781750114,-0.868050177995593
-0.53782838494272,-0.3965133096566307,0.49416113470404605,-0.08226246401009155,-0.4727653932870818,-0.8773401677371778
-0.5379966935443268,-0.39733868617277646,0.4925559658453939,-0.10337133907582527,-0.45308489111853134,-0.8854538089012772
-0.538201477699271,-0.39811462227271743,0.49096499191191445,-0.12494739424404591,-0.433785329209371,-0.8923107288575771
-0.5384426553015832,-0.39884273399741665,0.4893910977154621,-0.14684768415828803,-0.4149940524828079,-0.8978951464738208
-0.538719496377226,-0.39952495505382946,0.4878373984555085,-0.16888625932315765,-0.39683728727424805,-0.9022181547944196
-0.5390308412387295,-0.40016340875041156,0.48630665771862597,-0.1908590383945926,-0.3794248257074948,-0.905322941883132
-0.5393750086404819,-0.40076031721206573,0.48480223617963525,-0.21253092066508855,-0.36286419648261625,-0.9072817548437062
-0.5397505331786494,-0.4013203794263192,0.48332161959541914,-0.23378380994974507,-0.3471457168232918,-0.908204261989903
-0.5401534768191945,-0.4018430966075199,0.4818740329798938,-0.25430492269828997,-0.3323764177363909,-0.9082152405812959
-0.5405803876055686,-0.40233073717997225,0.4804622435372911,-0.2738345223616699,-0.3186720292006856,-0.9074485066206641
-0.5410271782148748,-0.4027858861737047,0.47908915452700657,-0.29216570419291304,-0.30616794153998844,-0.9060355362051896
-0.5414893876752332,-0.4032113422519012,0.47775703205431846,-0.3091310025877592,-0.2949693054284605,-0.9041189811601891
-0.5419623585656073,-0.403609871344992,0.4764681083769057,-0.3245558867233192,-0.2851660947082898,-0.9018557394739265
-0.5424416119317492,-0.40398393051055703,0.4752235603853367,-0.3383193037729955,-0.27673730442901356,-0.899420098192118
-0.5429228170804169,-0.4043360323013251,0.47402373716591534,-0.350328640972968,-0.26963145349083606,-0.8969775485498241
-0.543401917532789,-0.4046683634448153,0.4728684701870155,-0.3605024832865855,-0.26376146693021096,-0.8946886878166217
-0.5438749975459591,-0.40498313938042646,0.4717575147000117,-0.3687905166363795,-0.2590516839610955,-0.892684591485701
-0.5443386794649284,-0.4052824076771592,0.4706902615183999,-0.3751624484208625,-0.25540100059118165,-0.8910799437715378
-0.5447897792348877,-0.4055680791405915,0.46966616076477413,-0.37954790518192866,-0.25270005919888255,-0.8899921728604645
-0.5452254201047648,-0.4058417233372877,0.4686843135401552,-0.3818941065799607,-0.25080551973497495,-0.8895243013150134
-0.5456429532501084,-0.4061046701471128,0.4677435231642375,-0.38219261984550906,-0.24954927175783997,-0.889749381736654
-0.5460399915962866,-0.40635801671910643,0.46684190521642,-0.3804061250174771,-0.24873466015473567,-0.8907425267084175
-0.5464129893015542,-0.40659799689867815,0.46598755309340084,-0.3770648171659195,-0.24768079603081675,-0.8924552352545043
-0.5467602311336975,-0.4068252999452728,0.4651776638180715,-0.3719689413342982,-0.24621027761982056,-0.8949969865183973
-0.5470798326822353,-0.4070389364091173,0.46441260127682016,-0.3652130675448277,-0.24397688451516183,-0.8983844918055812
-0.5473703921384948,-0.407237557804943,0.4636932558451836,-0.35694590146816996,-0.24059473651209373,-0.9026094372361456
-0.547631174849519,-0.4074195688278747,0.46302090649042466,-0.3473888550158649,-0.23564886361045165,-0.9076291073394844
-0.5478621338389389,-0.4075837538057746,0.46239604132115025,-0.336782901545237,-0.22867982983903268,-0.9133908323667159
-0.5480638790354022,-0.40772894657770614,0.46181927198312617,-0.32543178349470336,-0.21916159058372459,-0.9198164770780465
-0.5482377221369807,-0.407854114200533,0.4612908634611632,-0.3137866165437368,-0.20646506496876565,-0.9267740480966637
-0.5483856359039484,-0.40795869392818135,0.46081048922127493,-0.3024670665076614,-0.18984639843565546,-0.9340621064357874
-0.5485102948776482,-0.4080424460335129,0.4603773598816042,-0.29236871331314535,-0.16834830622798277,-0.9413710125480735
-0.5486146026306755,-0.4081053035958145,0.4599910263320943,-0.284607842441742,-0.14072030431149848,-0.9482595488446904
-0.5487018129749855,-0.40814762435643126,0.4596502066129045,-0.2805360029561835,-0.10526528929867517,-0.9540538611180369
-0.5487753225781795,-0.40817006152773583,0.45935332895652253,-0.2817913535328234,-0.0597604596804056,-0.9576128239183757
-0.5488384745849992,-0.40817345832500207,0.45909904771657967,-0.29041203284231376,-0.001226327016943676,-0.9569009077759528
-0.5488944039896951,-0.40815909062566685,0.4588857696561483,-0.3088138106195436,0.0744772696153023,-0.9482020705953379
-0.5489459798396145,-0.40812836078609416,0.4587114721958261,-0.33925968816588353,0.17229621893817834,-0.9247793666195169
-0.5489955677560048,-0.4080826749456269,0.4585740705480198,-0.3829214911115611,0.2961990799229887,-0.8750069923707315
-0.5490450298167793,-0.40802344914368693,0.4584712357974506,-0.4369995585974912,0.44380072055595643,-0.7823505008751587
-0.5490958460439772,-0.40795216062615197,0.4583999563743412,-0.49111059687325676,0.5975874411707817,-0.6337977846235745
-0.5491490941927566,-0.4078702379618736,0.4583569366050324,-0.5297783717150235,0.7252736213051764,-0.4396738007908295
-0.5492055557066161,-0.4077788311072528,0.45833870570052593,-0.5453635352882963,0.8036411033192062,-0.2382007376851303
-0.5492657974568761,-0.40767893758288093,0.4583412182525012,-0.5439094247984703,0.8364554283133917,-0.0671182096040825
-0.5493301412902822,-0.40757136844426944,0.45836060188790545,-0.5358271177689449,0.842201999826346,0.059875632371849986
-0.5493988536359995,-0.40745680250114436,0.45839295839942684,-0.5279109370262014,0.836541774148963,0.1466557283975753
-0.5494720707723794,-0.4073358512129195,0.4584347613150081,-0.5227779735060751,0.8280862045816292,0.20242635252968855
-0.5495499115416109,-0.40720915852818307,0.45848253094484465,-0.5210094951155201,0.8205090241520614,0.23518938599456948
-0.5496324364593734,-0.4070772218170072,0.45853335924928007,-0.5221304057006855,0.8149627097636171,0.25142716865442377
-0.5497195797905399,-0.40694050798859543,0.45858501516141703,-0.5253718949470707,0.8114107749841634,0.2561189689174213
-0.5498111434332708,-0.4067997040884249,0.45863556955300777,-0.5301082376327901,0.8093837755236695,0.2527511826142614
-0.5499067758489973,-0.40665533691320105,0.4586838953177342,-0.5355470444529784,0.8083892891638212,0.24432789513866668
-0.5500058212496248,-0.40650801749276044,0.45872936520787483,-0.5409445377947366,0.8080835755800219,0.23319507264915834
-0.5501075636087185,-0.4063584142443844,0.4587714985306841,-0.5458590140994293,0.8082269635221643,0.22092331737990273
-0.5502111789984164,-0.4062072734665542,0.45881028374651583,-0.5499969324454655,0.8086383206897764,0.20882394645393623
-0.5503157618519423,-0.40605543533817956,0.4588461551689868,-0.5532044550247924,0.8091861550754859,0.1979459455883702
-0.5504204034250111,-0.40590385529261064,0.4588795723683269,-0.5565460632090804,0.8102864161030832,0.18355490569662083
-0.5505242254585975,-0.40575356543041496,0.45891099786842665,-0.5575978122696122,0.8107796057724677,0.17810421279572342
-0.5506263359976139,-0.405605712899275,0.4589409328583003,-0.5581446433401883,0.811184062674132,0.17451353407155537
-0.5507258901506829,-0.40546148660827785,0.4589697298466936,-0.5583049748701094,0.8114726503472249,0.17264904509940632
-0.5508220356237895,-0.405322109337976,0.4589976324465285,-0.5581583213112004,0.81164230462509,0.1723254412265796
-0.5509139996370811,-0.4051886774693175,0.45902472533546,-0.5577553839171021,0.8117120955631578,0.1732986024985573
-0.5510011878936064,-0.4050620256822333,0.45905098619475915,-0.5571286414854902,0.8117118615260338,0.17530410917737532
-0.551083128639517,-0.4049427835518387,0.45907633680206056,-0.5563004870916067,0.8116698097555464,0.17810639514918072
-0.5511594837184688,-0.4048314308496816,0.45910064273816625,-0.5553103372656549,0.8116023355073584,0.1814719766931131
-0.5512302006036944,-0.40472807139468714,0.4591237968267903,-0.5542058573381426,0.8115170105038196,0.18519181773241994
-0.5512953507875162,-0.4046326385371366,0.45914570629120227,-0.553030525169407,0.8114203027355759,0.189088155470818
-0.551355146872031,-0.4045448621372514,0.45916629907347534,-0.5518132719305491,0.8113150548677909,0.19305438266502878
-0.5514098546561468,-0.40446438067612334,0.4591855868711251,-0.5505580618608089,0.8111974232391972,0.19709023580623344
-0.5514597033593854,-0.4043908714061379,0.4592036096568834,-0.5492632410220353,0.8110612445784172,0.20122015208442362
-0.5515048865880304,-0.40432405737417304,0.4592204021360248,-0.5479382606022891,0.8109035419471767,0.20542421528549507
-0.5515455951923726,-0.4042636828068639,0.4592359737840215,-0.5466047098703356,0.8107233449252126,0.2096448166324197
-0.5515819745654699,-0.40420956597423924,0.45925030249187554,-0.5452984660405984,0.8105238384002582,0.21377719784551985
-0.551614192711637,-0.40416149718383204,0.45926336150282987,-0.5440681350448895,0.8103131576300441,0.2176751042273856
-0.5516423679839187,-0.40411934233499164,0.4592751074851117,-0.5429738241484282,0.810107541257024,0.2211451963939779
-0.5546080018398363,0.34388708222322445,0.36541671905924944,0.0723780394535846,-0.007842805465137727,0.9973464341979127
-0.5545957721264215,0.34388566050006597,0.365576557467092,0.06874208623475467,-1.3581192419429238e-05,0.9976344648194773
-0.5545833412113884,0.34388640762044215,0.3657527450006883,0.06525435587951645,0.006643579058450818,0.9978465472686887
-0.5545705342902815,0.3438894516707172,0.3659496397628278,0.06207923550380566,0.011608615607067028,0.9980037116979829
-0.5545572485989988,0.3438945610770407,0.36617073513649157,0.05935346638230595,0.014581663044035678,0.9981305230936857
-0.5545433099229709,0.34390130075913805,0.3664187248073919,0.05718595345015273,0.015520570738118869,0.9982428955980402
-0.5545285148785254,0.34390901333987484,0.36669518373765275,0.05559039378477998,0.014546001404426195,0.9983476959266223
-0.5545126584009987,0.34391693916092797,0.3670002075466097,0.05457486863188031,0.011871323704564757,0.9984391095040871
-0.5544955731815101,0.34392416968079237,0.3673325650631238,0.05411573643435514,0.00771843275747892,0.9985048386792804
-0.5544771470438563,0.34392976625692173,0.3676896355092255,0.05417606342927659,0.002264969191106871,0.9985288298621479
-0.5544573890740078,0.3439327743060163,0.36806731453814123,0.05471162886178979,-0.00421338779769561,0.9984933074540641
-0.5544364143505708,0.3439323949476156,0.36846058036644946,0.05565684955470294,-0.011442354557102862,0.9983843887099972
-0.5544144142517405,0.34392803424010887,0.3688640854022963,0.056975308209205995,-0.019142469754215862,0.998192055721831
-0.5543916005226569,0.34391931804234754,0.36927205402391594,0.05860914464338954,-0.02715275246123058,0.9979116675327278
-0.5543681621401708,0.34390620594706156,0.3696786766075116,0.060523886534620125,-0.035293084199118134,0.9975426092986999
-0.5543441746999446,0.34388901772151487,0.3700786438855566,0.06273720933949233,-0.04331498067804226,0.9970896925618846
-0.5543198414544621,0.3438682230042204,0.37046713305078316,0.0653824352501371,-0.050876959657196394,0.9965624276164549
-0.5542954909320585,0.34384464362751027,0.370840104481937,0.0687250377875558,-0.057780170340130395,0.995961003803143
-0.5542715034888372,0.34381919460400906,0.37119412148980946,0.07324701784368946,-0.06379419758340613,0.9952714075726757
-0.5542481590500702,0.34379281723072036,0.3715263846220127,0.0798337469236294,-0.06848227889875065,0.9944529905073278
-0.5542253963155733,0.34376660700580824,0.37183439129644974,0.0897107933511659,-0.07135045297266485,0.9934088213907202
-0.554202797555782,0.34374171381849267,0.37211582923993286,0.10455468363365106,-0.07176667670749028,0.9919263391223311
-0.554179582398163,0.3437192429072342,0.372368596976918,0.12676203179967144,-0.06885917694812412,0.9895401967803259
-0.554154629804608,0.3437002720329333,0.37259083902806084,0.15978198931282786,-0.06133643364736526,0.9852449227469572
-0.554126538488316,0.3436857601785283,0.3727809096161146,0.20856581865829982,-0.04741595981337962,0.9768582425523005
-0.5540936414472732,0.3436766204086142,0.3729378728580395,0.2799722017412753,-0.0243585296935934,0.9596990300522914
-0.5540542934837455,0.34367356176845154,0.37306151167094753,0.38252466114983,0.01184104703523477,0.92386940268488
-0.5540070892657167,0.3436770858488094,0.37315229125033733,0.5224421371097917,0.06582984270167323,0.8501297813757771
-0.5539511208937414,0.34368737029710283,0.3732115711273468,0.6895429293180262,0.1380487054793524,0.7109663167429177
-0.5538861758810014,0.3437042250431996,0.3732419064510368,0.8408094139652155,0.21586630788217925,0.49642851097493085
-0.5538128569262993,0.3437270910427606,0.3732471674470457,0.9269519835437318,0.2771973478402019,0.25282731370383915
-0.5537325304181493,0.34375520684933436,0.3732322910110986,0.9482832169481964,0.31351206044273294,0.04969032512805829
-0.5536471584145923,0.3437873594542125,0.3732028726405667,0.9393946032394149,0.3321287399351455,-0.08501928906874488
-0.5535591210102594,0.34382207766375006,0.3731647282790717,0.9263215552168996,0.34213767500998504,-0.1577028461357193
-0.5534709349083352,0.3438578594801385,0.37312362781517777,0.9198907979446794,0.3488335825120822,-0.1792095186324861
-0.553385205428042,0.34389310395638717,0.37308524051690656,0.9225225317464466,0.35402696695160024,-0.15367851213223332
-0.553304529310995,0.34392624408186767,0.373054581607533,0.9309991683919598,0.35682794116182714,-0.07690493390993171
-0.5532311433391173,0.34395607437107945,0.37303598220087214,0.9339167421482991,0.3521932782398481,0.061314056282195335
-0.5531667180617633,0.34398157246414507,0.3730327615139526,0.9053021555009768,0.3299633581631227,0.26749241020073816
-0.5531121829987283,0.3440020896980229,0.3730474099233008,0.8107994643357744,0.27851600126758064,0.5148136222660957
-0.5530677678881997,0.3440173500701909,0.3730810862047636,0.650166107699272,0.20224491132926936,0.7323803849370862
-0.5530330758843691,0.3440273827619553,0.37313410352070214,0.47623262006849365,0.12536788975134064,0.8703363624495953
-0.5530070255592889,0.34403258423397787,0.37320655393192403,0.33504266691381207,0.06552432599234366,0.9399217914542302
-0.5529880415478474,0.3440335992640608,0.37329809313072543,0.2359375118834584,0.024678359243328403,0.9714548209110397
-0.5529741380115663,0.34403125999604633,0.3734083617799286,0.17128692906510307,-0.0014051473806946638,0.9852201852846321
-0.5529631943542774,0.34402645753132954,0.3735370285558186,0.13119608830544935,-0.01723701062015684,0.9912065737666541
-0.5529531457239003,0.3440200510778533,0.3736841513727114,0.10787313900684706,-0.02616466879717013,0.9938203036704091
-0.5529421437357487,0.34401280148873215,0.37385030818261694,0.09558806701290397,-0.030660572281533502,0.9949486673955122
-0.5529288622120547,0.34400527968736994,0.3740362983153909,0.09024594805771123,-0.03259359033177871,0.9953860189536766
-0.5529125003746442,0.3439978319681749,0.3742437269412663,0.08895554031100492,-0.03339455459325346,0.995475622791184
-0.5528927464839184,0.3439905888344493,0.37447451734617115,0.08972964789928735,-0.03415027051162825,0.9953805047879191
-0.5528695835066025,0.34398337741874324,0.374730832156846,0.09141889938894146,-0.035435347544154054,0.9951818532202744
-0.5528431306569772,0.34397571526103077,0.3750142547488961,0.09335112573455936,-0.03777983024282702,0.9949162033814273
-0.5528135215543046,0.34396709780291335,0.37532614572370665,0.09523490013921046,-0.0414635984096369,0.9945909127889713
-0.5527808359043218,0.34395676438296274,0.3756676138525551,0.09704428210439155,-0.04661642225025002,0.9941877672187632
-0.552745048010906,0.3439436895325674,0.37603938498404604,0.09878688980699665,-0.05326777467969074,0.9936818880219837
-0.5527059412164312,0.3439267867968356,0.37644201930101234,0.10054821542655831,-0.061368031483544756,0.9930377742494839
-0.5526631545142898,0.3439048193986534,0.37687562205147923,0.10237632848143025,-0.07085267068421913,0.9922192229661627
-0.5526161983287662,0.34387650203559417,0.3773401082904937,0.10425315197464588,-0.08164456024295563,0.9911939497828292
-0.5525646499383606,0.3438404128968613,0.3778352470675822,0.10611653781135182,-0.09364266996069823,0.9899345083214159
-0.5525082348856154,0.3437951077529332,0.37836077406373597,0.10786387038086204,-0.10675208449671543,0.9884176131180923
-0.552446820801387,0.3437390376582187,0.3789167826339829,0.10942517524435018,-0.12079376725348207,0.9866280944790975
-0.5523805160432645,0.34367065734594276,0.3795032758599009,0.11071372755227048,-0.13558071585455894,0.9845609884714338
-0.5523096151925384,0.3435883619493866,0.38012050137330894,0.1117091379184006,-0.1508553191154113,0.9822238752952991
-0.552234378316659,0.34349057682656803,0.38076907866613163,0.11241258089704254,-0.16639538352479508,0.9796305364767384
-0.5521551704521999,0.3433757408521368,0.3814492915148363,0.11288125102805589,-0.18198401503026382,0.9768007173624547
-0.5520722746318675,0.34324253418301515,0.3821610741339005,0.11322484603330121,-0.197343585614571,0.9737739180413079
-0.5519859217271884,0.34308995703241785,0.382904455179085,0.11356381999371916,-0.2122502832341328,0.970594187111928
-0.5518963332348001,0.34291719107153207,0.3836791545707013,0.11407784927758115,-0.22650778021266987,0.9673057788555439
-0.5518034649534047,0.3427238110952423,0.3844845242323747,0.11497519959283946,-0.23996872816559867,0.9639479825079628
-0.551706946172809,0.34250977660250254,0.38531997841918453,0.11643129375139301,-0.2524823871111103,0.9605708709064897
-0.5516060167603081,0.34227532257803844,0.3861849124328117,0.1185852558482705,-0.2639303795432201,0.9572242641354074
-0.5514996358612693,0.34202110999530544,0.3870782611645538,0.12150594291262624,-0.2742457178612286,0.9539526152129848
-0.5513866409114567,0.34174799290646407,0.3879994130877406,0.12521234774236267,-0.2834230446203142,0.9507855939963527
-0.5512657377411158,0.3414568891706836,0.3889481029140328,0.1296821204869113,-0.2914801527305808,0.9477456769567327
-0.5511356296945372,0.3411486591423967,0.38992372983008855,0.13483600929574355,-0.29842770381412753,0.9448598606107816
-0.5509950497080296,0.340824322633086,0.3909257714101209,0.14057450225226067,-0.30432629533494243,0.9421381614626585
-0.5508428330129833,0.34048489908813545,0.3919534200355071,0.14674132698465897,-0.309245877109224,0.9395924491212815
-0.5506779052956003,0.34013157573565306,0.3930060335406174,0.15315279392305187,-0.3132650271534162,0.9372348929036587
-0.5504997149879853,0.3397655614416619,0.3940824174979478,0.15961194263773457,-0.3165186426720003,0.9350614827959085
-0.5503081444489752,0.33938804205386075,0.39518138233672195,0.16594123183875034,-0.3191412008894531,0.9330661292055755
-0.5501035180776475,0.3390002494280928,0.39630157837142443,0.17196460175513073,-0.3212504518655222,0.9312498713661104
-0.5498864998058034,0.33860337925455475,0.39744156352820637,0.17750049442953256,-0.3230252212806544,0.9295957620890145
-0.5496581044893355,0.33819826644348566,0.39860011258070344,0.1824586383451329,-0.3245831915424434,0.9280919119685084
-0.5494195259656053,0.33778544197434185,0.39977595397666643,0.1868054760378451,-0.3260185293107977,0.9267230614742996
-0.549172096298489,0.3373655310987073,0.4009672313167562,0.19052910929096778,-0.3274120756567155,0.925472847374223
-0.5457603314926991,0.33148157206400264,0.41680950174643944,0.1748151545630369,-0.374531843272385,0.9105852843693946
-0.5455321958613313,0.33099631654560663,0.41799154752859735,0.16758171185388568,-0.3826675568350489,0.9085603506636287
-0.5453166474575428,0.33050378063601543,0.41916137845071993,0.15946672470137072,-0.3916722724460129,0.906180553041166
-0.5451149164962782,0.33000321145773526,0.4203175733141108,0.15054363325437903,-0.40155705548235504,0.9033761927784636
-0.5449276554843026,0.3294940597828954,0.4214591651034246,0.14092035887445933,-0.41231711318270603,0.900075580510533
-0.5447554645437495,0.32897537627487217,0.4225854765990948,0.13074496829782067,-0.42386879069334743,0.8962371346585462
-0.5445987291677403,0.32844598273092307,0.4236966027726266,0.12016238272240345,-0.43612827370734836,0.8918257288571141
-0.5444572946344994,0.32790539413792297,0.4247926993278066,0.10926999532873244,-0.4490637378508132,0.8867930014768468
-0.5443310095569212,0.3273527856768925,0.4258741027599378,0.09811701955162597,-0.46268061354965134,0.8810787140316262
-0.5442197325151058,0.3267870992268707,0.4269409842187694,0.08682821230974899,-0.4769061914940205,0.8746549868729737
-0.5441231768413423,0.32620727048018544,0.42799368687423095,0.07546349767369334,-0.49172623540121685,0.867473671033882
-0.5440411221997934,0.32561235827975876,0.4290318867343967,0.06414666625464653,-0.5071022621834926,0.8594954920747397
-0.5439733244599629,0.32500134118341684,0.4300553960001414,0.053010723075383306,-0.522957644728177,0.8507086252409711
-0.5439194232996681,0.3243736497832399,0.4310636536559309,0.04220057401172089,-0.5392316491585614,0.8410994828787017
-0.5438791531969364,0.32372859436261864,0.4320561722473089,0.03182324409217144,-0.5559011249272917,0.8306390434117709
-0.5438517667018177,0.3230658892032463,0.43303236280712126,0.02198581949181894,-0.5729576512858305,0.8192900301933972
-0.5438366091907705,0.3223849420660247,0.4339918959111043,0.012820447871047132,-0.5904025853445117,0.8070070776237976
-0.5438327201575053,0.3216852367926728,0.4349343241428805,0.004459568393411131,-0.6082367529798115,0.7937431351352403
-0.5438389028939237,0.3209662047318379,0.4358594881978344,-0.0029802892317276537,-0.626505843303247,0.7794110251869565
-0.5438538928661084,0.32022711846651025,0.4367665913814424,-0.009439826202104007,-0.6452782907548341,0.7638892702229779
-0.5438765054797671,0.31946718690962006,0.43765472120400983,-0.014720353597604503,-0.6645205593317423,0.7471249811212244
-0.5439048611646671,0.318686161012819,0.43852214998624534,-0.018692780725342157,-0.6841759570895466,0.7290773893691651
-0.5439374538269521,0.3178830979829141,0.43936722903274533,-0.021231149965618448,-0.7042148240094609,0.709669444119205
-0.5439725825119343,0.31705711172655865,0.4401880628962099,-0.022290069904812252,-0.7245982631201582,0.6888109391312602
-0.5440080869752192,0.3162078760554828,0.44098268805258184,-0.021858433396977395,-0.7452163387638526,0.6664644156508499
-0.5440422017707501,0.3153347461031317,0.44174929978294686,-0.019979342823068097,-0.7659656995340819,0.6425709089257177
-0.5440730012464291,0.31443750119013814,0.44248635662500874,-0.016719151917707748,-0.786733597414539,0.6170662174016096
-0.5440984532855722,0.31351634561439906,0.4431923275510825,-0.01221705407101992,-0.8073869884837231,0.5898957487700774
-0.5441170770792465,0.3125709462591683,0.44386609373431113,-0.00653379937955243,-0.8277547963936451,0.561051964182448
-0.5441276201084826,0.31160093226528274,0.4445064700977885,0.0003133563075097269,-0.8476503300354908,0.5305551995773371
-0.5441291004192206,0.31060594594799135,0.44511221852304056,0.008265118462194963,-0.8668950427817536,0.49842218311109254
-0.5441203991495773,0.3095862336334854,0.4456814614026092,0.017295443332950234,-0.8852909924227148,0.46471574793105663
-0.5441002839986608,0.3085423914308521,0.4462123777560958,0.027313932370372968,-0.902635986511447,0.42953722184808796
-0.5440676759953131,0.3074753017628752,0.4467025928420186,0.03819301086196673,-0.9187652889069882,0.39295246254598826
-0.5440216069923209,0.3063858055356378,0.4471501564370403,0.049692391654241955,-0.9335260982956162,0.3550488558109222
-0.5439609010115102,0.30527489829188126,0.4475528424251602,0.06167913074243467,-0.9467440901855481,0.3160242277572978
-0.5438848932736872,0.3041430076304928,0.44790922465849886,0.0739618855631524,-0.9582510287514989,0.2761966788008814
-0.5437926565889564,0.30299089751058544,0.44821811361268826,0.08643413153577068,-0.9679284279467814,0.23588916736071125
-0.5436832784024248,0.3018195200137626,0.44847891693881525,0.09893439505385467,-0.9757229568149753,0.1953885795525667
-0.5435563816324379,0.3006293983311543,0.4486914194487838,0.11127748458742076,-0.9816103107250627,0.1551080890931946
-0.5434117752886106,0.29942122951410466,0.448855887555073,0.12334508842241096,-0.9856342840103018,0.11537351232222831
-0.5432492812986945,0.29819547340647196,0.44897261774290215,0.13490108179724417,-0.9879001196321621,0.07651830997018352
-0.5430697394616447,0.29695178097002,0.4490423105350306,0.14570087105336083,-0.9885657444695348,0.03884617144180949
-0.5428739766200187,0.29568997104993683,0.44906547151665277,0.1555879741970396,-0.9878185285658381,0.0026338009195466866
-0.5426627507434453,0.29441038245993834,0.44904279467295205,0.16447537890843306,-0.9858625408002959,-0.031982813817930625
-0.5424367886557608,0.29311399212761097,0.4489746697089613,0.17230566817761883,-0.9829006772939998,-0.0649385500982357
-0.5421967848806699,0.29180208077299924,0.44886167412540107,0.1790453023111201,-0.9791322477115413,-0.09613959232108593
-0.5419436271246758,0.29047597605696607,0.4487045683592082,0.18463499346290332,-0.9747611112815842,-0.1255017733820717
-0.5416787538308336,0.28913638609948594,0.44850475026303815,0.18913747887305676,-0.9699581616179455,-0.1529973163041741
-0.5414039406142621,0.2877834476114493,0.4482637519676749,0.1925908146915272,-0.9648743810074558,-0.17867906136963274
-0.541120913969301,0.28641725581079175,0.4479831632054747,0.19505040415284178,-0.9596642056461576,-0.2024844493815326
-0.5408311315822601,0.2850384967338767,0.44766481518484635,0.19655734949507989,-0.9544795091675033,-0.22435256838028617
-0.5405359708286136,0.28364804775077934,0.4473107341573641,0.19714518192367878,-0.9494711815429878,-0.24420944425562724
-0.5402369909111239,0.28224654374663655,0.4469230662798999,0.1968127608886204,-0.9447709450942705,-0.2620545715248593
-0.5399357262904021,0.28083413002469026,0.44650449414989857,0.19562401219400782,-0.9404851886240769,-0.27788280952922073
-0.5396335464115981,0.27941045933132713,0.44605752189459547,0.19373039047501303,-0.9366620101604484,-0.29177528087311816
-0.5393320925703193,0.27797498329492676,0.445585301607251,0.1912436443222931,-0.9333186903710996,-0.3038784143540037
-0.5390324102883566,0.2765279917825217,0.4450906210393693,0.1882869848441731,-0.9304562494109399,-0.31432336736300237
-0.5387353452552883,0.2750703204777108,0.44457687756672976,0.18496196875183982,-0.9280522356948591,-0.3232771534414663
-0.5384414515301426,0.27360314321144624,0.4440469131283438,0.1813052621311585,-0.9260736369676896,-0.33093204867009757
-0.5381513940424891,0.2721273570981019,0.44350336842552907,0.1773270764095985,-0.9244793881474594,-0.3374803236672083
-0.5378660438639291,0.270643292674822,0.44294848094786854,0.17302521312714458,-0.9232292343752067,-0.3430889919791597
-0.5375868795463044,0.2691507336290402,0.44238406658106805,0.16843555319330622,-0.922280864169858,-0.3478900286104284
-0.537314692482551,0.26765036059105285,0.4418117820214414,0.16362875854111666,-0.9215327404693728,-0.3521406503391798
-0.5370498576333416,0.2661439331608412,0.44123217544604476,0.15865921326877278,-0.9208820786642796,-0.35609472228592426
-0.5367924061190499,0.264634098004644,0.44064533673162865,0.15353238835869498,-0.920285462476151,-0.3598645207295819
-0.5365426280134145,0.2631232933357141,0.4400513836049209,0.14821064232116823,-0.9197250131182445,-0.36350998025830283
-0.5363010783929382,0.26161333306796447,0.4394507223159945,0.14263185930143837,-0.9192094074752521,-0.3670289061112363
-0.5360688827799114,0.2601047935620743,0.4388438998615603,0.1367902601199646,-0.9187352966811934,-0.37042391846158124
-0.5358471597644486,0.2585982399697121,0.43823185838198125,0.13070248102028337,-0.9182840789567315,-0.37372611868817746
-0.5356365049765623,0.2570951620239534,0.437615629968116,0.1243743247865734,-0.9178619553146479,-0.37690908495266484
-0.5354372406821952,0.25559753815818936,0.4369958213845502,0.11783765744049322,-0.9174654546711152,-0.3799624007373112
-0.5352495460310567,0.25410711545900216,0.43637363892941466,0.1110731064014701,-0.9171193942562227,-0.3828247402055237
-0.5350736479451994,0.2526246709307959,0.4357502015530012,0.10407759226554311,-0.916796802707023,-0.3855534688397802
-0.5349101773228536,0.2511497187985768,0.4351261590022022,0.09686087322011791,-0.9164744806380498,-0.38819131569144216
-0.5347598499363793,0.24968133269542364,0.4345019350774315,0.08946512817280758,-0.9160967665186088,-0.3908486986228466
-0.5346231814384237,0.2482191454167135,0.4338778177348912,0.08193287080762729,-0.9155958992282006,-0.3936637575364581
-0.5344999259116364,0.2467635909460358,0.4332535138210169,0.07437430730748734,-0.914933185484589,-0.3966934944154667
-0.5343896583089605,0.24531525476168953,0.4326280163815944,0.06689088747628849,-0.9140276480074957,-0.4000988226057654
-0.5342917526482998,0.24387434845408942,0.43199975516863764,0.05955215607996837,-0.912826141222534,-0.40398264394278816
-0.5342059860350239,0.24243985319028558,0.4313672093025544,0.052428795751236906,-0.9113048297281429,-0.40838061742721765
-0.5341322990422815,0.24101026681812523,0.4307286921821529,0.045632444863074106,-0.9094485551178905,-0.41330497888339046
-0.5340704569695456,0.23958442935341875,0.4300826202324719,0.03925288943709943,-0.9072576724693094,-0.41873944931951446
-0.5340193216847979,0.23816241632144414,0.4294275529060364,0.033382988507682364,-0.9047310203446144,-0.42467323544637114
-0.5339773544760346,0.2367449102622602,0.42876160024282123,0.02811376588651621,-0.9018822332975968,-0.4310661821922678
-0.5339430490791282,0.23533230489788431,0.42808335412235327,0.023455324290518227,-0.8987624298778747,-0.4378081113940731
-0.5339150543405756,0.23392431808224678,0.42739195192424695,0.019412716280379095,-0.8954656772662748,-0.4447070578309606
-0.5338926009963587,0.23251971217931214,0.4266874548990539,0.015987341093121523,-0.8920549091143325,-0.45164415644375616
-0.5338749733026551,0.23111747590825119,0.42596970971923165,0.013169525315530508,-0.8885771082010063,-0.45853820602442796
-0.533861199214615,0.22971784568922338,0.4252393399318996,0.010942907830288518,-0.8850773570174507,-0.46531529618444917
-0.5338499222634135,0.2283245922317183,0.4244984960191927,0.00924572367756321,-0.8815794342278744,-0.4719451427233246
-0.5338399770995798,0.22693205706981717,0.42374314959557213,0.008010802999971485,-0.8781830092206575,-0.47825770182135724
-0.53383048247405,0.2255422118985929,0.4229753594280887,0.007103756545018885,-0.8749524080709654,-0.48415681370168484
-0.5338212364514404,0.22415559186707062,0.4221969679075719,0.006453585233504318,-0.8718987645693984,-0.48964364141688893
-0.5338124431974676,0.2227719912638663,0.42140947238136467,0.005973420548619577,-0.869044623419591,-0.49469764579230696
-0.5338041982153531,0.22139176336272962,0.42061442148453004,0.0056049852052769,-0.8663715519091982,-0.4993685194155675
-0.5337960990237833,0.22001584309999364,0.4198129245945099,0.005306381313178048,-0.863868140124443,-0.5036900622359893
-0.5337877267562526,0.21864501632556244,0.4190055941701968,0.005049774170115425,-0.8615361966411605,-0.5076710368515368
-0.5337789338454444,0.2172794122348058,0.4181927085789961,0.004746420118862421,-0.859381970959713,-0.511312135085267
-0.5337699229325255,0.21591797425091885,0.417374723112142,0.004318028712460129,-0.8574104835400554,-0.5146150185756792
-0.5337614704409875,0.214558717913884,0.41655193820283576,0.0037130286274905102,-0.8555983786553232,-0.5176269195673593
-0.5337543673715006,0.2132000774232996,0.4157246695010783,0.002895818193185915,-0.8539471070280945,-0.5203517585589004
-0.5337487895549813,0.21184161256497763,0.41489255923765034,0.001841127355354643,-0.8524319850546328,-0.5228348889524108
-0.5337448390156445,0.21048318018544282,0.41405533900294084,0.0005536747736310582,-0.8510323205749235,-0.5251130190550464
-0.5337425683985374,0.20912447249445176,0.41321231321750507,-0.0009752381206341376,-0.8497458718584031,-0.5271916180765877
-0.5337425563112957,0.20775886728818,0.4123595612319602,-0.0027577297478182643,-0.8485903060411147,-0.5290433700744063
-0.5337456558601233,0.20638969740784827,0.4115003911023636,-0.0047736219969638375,-0.8476037534461098,-0.5306082261679482
-0.5337529455226137,0.20501588473634458,0.4106355628448127,-0.007015332906350601,-0.846786696731511,-0.5318863368641362
-0.5337648417980849,0.20363750570480937,0.4097654610117423,-0.009439903987541335,-0.84613675283942,-0.5328822418762594
-0.5337815522365609,0.20225535808492157,0.4088908749723593,-0.011968926889680792,-0.8456624133840954,-0.5335839459527404
-0.5338029447814061,0.20087013127808223,0.40801206818749847,-0.014540477417930511,-0.8453828876602952,-0.5339628711507937
-0.5338289576686139,0.19947753068878835,0.407126702566824,-0.01715543510174063,-0.845345252741286,-0.5339448423894003
-0.5338597575426607,0.19808275691069765,0.40623964048310024,-0.019735530541738548,-0.8455772031054537,-0.5334882401914727
-0.5338955940714903,0.19668512597442167,0.4053526058919196,-0.022215942526428403,-0.8460873614702045,-0.5325811005453066
-0.5339362486696053,0.19528456719406123,0.4044668700638412,-0.02457563380564669,-0.846885880811123,-0.5312064976125754
-0.5339811603335524,0.19388195104447845,0.4035837251747813,-0.026744474542184336,-0.8479378878680034,-0.5294205052691213
-0.5340293697899142,0.19247814545767342,0.4027040548788316,-0.028689203348766665,-0.8492412117997031,-0.5272250883561828
-0.5340803355701482,0.19107313104382406,0.4018288450464648,-0.030419806926909376,-0.8508027732045433,-0.5246039234069718
-0.5341338069723992,0.18966588449005753,0.40095886347763976,-0.03191952469706198,-0.8525914932381752,-0.5216022331250246
-0.5341896465136818,0.1882545006924959,0.4000946098342336,-0.03321706100635342,-0.8545777233626473,-0.518260109974147
-0.5342477025964081,0.1868373900337654,0.39923647085834696,-0.03431962678608941,-0.856712845250662,-0.5146506232385022
-0.5343073984863559,0.18541387816735758,0.3983843129812646,-0.03525256874802265,-0.8589617849204708,-0.5108247335857033
-0.5343679742460686,0.18398372553117437,0.3975373396350978,-0.03606387011148759,-0.8612861470854907,-0.5068388009132809
-0.5344293011243555,0.18254587845993783,0.39669486459189246,-0.0367898183417454,-0.8636529805145348,-0.5027425171146181
-0.5344911611458232,0.18109830846480257,0.39585549279635757,-0.03748229825754897,-0.8660422867693564,-0.49856377209403835
-0.5345539203351317,0.17963800319028383,0.3950181381500908,-0.038167183525059496,-0.8684232046711461,-0.4943525095419878
-0.5346180630994287,0.17817039321301842,0.39418701467687955,-0.03894922580407226,-0.870817557685808,-0.4900609544081102
-0.5346835661651217,0.17669293605972552,0.3933603086495949,-0.03986707123843175,-0.8732130596321983,-0.4857052286301279
-0.5347504319040469,0.1752066985617642,0.3925379818240596,-0.04093105961214848,-0.8755951576356867,-0.48130839207722526
-0.5348189538118463,0.17371243051940136,0.3917203046209273,-0.042195073291573404,-0.8779792220161501,-0.476835465855713
-0.5348895788497523,0.1722103080514418,0.39090750441540123,-0.04367127789411118,-0.8803635283702032,-0.47228474186941694
-0.5349629952842541,0.17070001381316685,0.3901001597993183,-0.04541279244510489,-0.8827708995914045,-0.46760369664591
-0.5350403397275902,0.16918119793636574,0.38929930985364447,-0.047372087780201494,-0.8851892714960038,-0.46281296322350246
-0.5351220627453087,0.16765439124355896,0.3885056310521665,-0.049487905893198555,-0.8876040138972098,-0.4579411115895447
-0.5352084904034737,0.16612105004325428,0.3877198116905359,-0.051684545568700134,-0.8899972241539004,-0.4530272053063801
-0.5352998775646851,0.16458258786874255,0.3869424315827386,-0.053797415866248505,-0.8923184355353365,-0.4481892989015728
-0.5353961177726967,0.16303980902095405,0.38617364793979,-0.05571936224262207,-0.8945548915385535,-0.44347141812716895
-0.5354973841901178,0.16149268231420824,0.38541391991610513,-0.057312562411055167,-0.8966827665017771,-0.43894793136384447
-0.5356031145587105,0.15994130189836508,0.38466316465769984,-0.05839287179494214,-0.8986626206967397,-0.4347364335847724
-0.5357121620851687,0.1583863677008142,0.38392106472282134,-0.0588542635725285,-0.9004862126371983,-0.4308836925547887
-0.5358229015928092,0.15682945166201578,0.3831870541872825,-0.05850219593013246,-0.902102953614024,-0.4275368453738299
-0.5359330995095288,0.15527222038388777,0.38245999021563976,-0.057190395800631406,-0.9034782072393314,-0.4248015862397066
-0.5360408207086458,0.15371562782610634,0.38173888531176897,-0.05480543275871053,-0.904580418958804,-0.4227654552780359
-0.5361439393460931,0.1521597997603123,0.38102251617984384,-0.051216874872226675,-0.9053620969704504,-0.42154039557033113
-0.5362398194477169,0.15060520220813664,0.38030928298660666,-0.0464148404477838,-0.9058031716997759,-0.4211487584272725
-0.5363258945691968,0.14905287696889694,0.37959778077506734,-0.04040049943206113,-0.9058700727914717,-0.42162449035417043
-0.5363995705750265,0.14750470499229607,0.3788864872073001,-0.0333160718868506,-0.9055712561640742,-0.42288383672522945
-0.5364581829612856,0.1459626185424957,0.3781736346052385,-0.025286404658694358,-0.9048999549550641,-0.42487253295754446
-0.5364999896567574,0.14442799840360812,0.3774580266661404,-0.016495704143809645,-0.9038642779631422,-0.4275011798427784
-0.5365238896881777,0.1429012801874418,0.37673869712441627,-0.007170230611316875,-0.9024922744932431,-0.43064635406908197
-0.5365292901027023,0.14138295524616593,0.37601506323669814,0.0025485676604359397,-0.9007800822366961,-0.4342680603596484
-0.5365158101234236,0.13987392872907917,0.37528672341910263,0.012371691999412798,-0.8987947382746736,-0.43819511600066063
-0.5364836218305704,0.13837568756735844,0.37455362898621414,0.022102454859122486,-0.8965765455377668,-0.4423369524251455
-0.5364330794548471,0.13688977909961797,0.3738156602990334,0.03150276543960657,-0.8941982359916527,-0.44656140733282546
-0.5363655766138593,0.13541717535249342,0.3730734080804002,0.040295533439850456,-0.8917708624276053,-0.4506894706002381
-0.5362830456745993,0.1339578517570498,0.372327686080626,0.04830824523024339,-0.8893696082286159,-0.4546295342386514
-0.5361877366821561,0.132511467705609,0.37157957153330207,0.05532553313399805,-0.8871068904530548,-0.4582362385213008
-0.5360821863244746,0.1310780630865583,0.37083066932333564,0.06126479733060451,-0.8850340743654905,-0.4614773145237576
-0.5359683100079637,0.12965845014002025,0.37008194648791315,0.06608508623286218,-0.8831910890395201,-0.46433421327615043
-0.5358486610010851,0.12825335964134602,0.3693348781204923,0.0697943389422413,-0.8816060373532956,-0.46679711348061603
-0.5357253846943855,0.12686338092900165,0.36859044791388923,0.07247409468307943,-0.8802786240102868,-0.4688891656995544
-0.5356007402591907,0.12548813391654237,0.36784973828292833,0.07416989081694535,-0.8792454402375341,-0.47055954258489674
-0.5354771047888491,0.12412661832309882,0.36711405469435676,0.07500372998151766,-0.8785078768168549,-0.47180329678755
-0.5353559908728537,0.12277791223024832,0.36638416637975496,0.07510055941431892,-0.8780622795484534,-0.4726166937485703
-0.5352385397918374,0.12144186418322932,0.3656609812166316,0.07461180677864261,-0.877888730210986,-0.4730163376224646
-0.5351249720486465,0.12011838000464696,0.3649446159239104,0.07378171420175973,-0.8779173231410938,-0.4730934710796864
-0.5350156952619562,0.11880704656916208,0.36423541449493807,0.07279791554034824,-0.8781142440556371,-0.4728803631782328
-0.534910298047482,0.11750685348240116,0.36353301071504945,0.07188258302160186,-0.8784360912821941,-0.472422403989272
-0.5348085274595844,0.11621614442271475,0.362837406867675,0.07125312841821263,-0.8788347290427504,-0.47177591155014786
-0.534709637469142,0.11493302659338185,0.36214833048258654,0.07109079526912877,-0.8792730574645112,-0.4709830031381314
-0.5346123062200658,0.11365611229497279,0.36146521405671855,0.07160899036876123,-0.8796723365098498,-0.470158199840935
-0.5345149679390813,0.11238457072257414,0.36078746621658814,0.07287038395174388,-0.8800117184439853,-0.46932854435244975
-0.5344158094610008,0.11111777647353105,0.36011403781736756,0.07494978649863551,-0.8802389152885746,-0.46857441406398026
-0.5343135275102779,0.10985484270557268,0.35944422828601197,0.07782893330610773,-0.8803466427263913,-0.46790217543927404
-0.5342063428307919,0.10859493183634662,0.3587768787217975,0.08144658813940184,-0.8803422591700314,-0.46729429699051117
-0.5340930466690761,0.10733696148616732,0.3581114250122477,0.08578642273241287,-0.8801915757976767,-0.4668013277290227
-0.5339723686316358,0.10608007346675195,0.35744716633145707,0.09074954484908315,-0.8798947569807672,-0.4664222729967351
-0.5338429877425234,0.1048239993218063,0.356783392178033,0.09629912382333651,-0.8794064988225166,-0.4662302956475274
-0.5337040130107612,0.10356894678015933,0.3561196927152119,0.10230741059164515,-0.8787217258034247,-0.46624169948545324
-0.5335548884425849,0.10231500088518194,0.355455508376578,0.10861429958308669,-0.8778673837862723,-0.466424474497556
-0.533395391568801,0.10106222701757334,0.3547903436582199,0.11503386210799864,-0.8769022165848115,-0.4667008818474229
-0.5332255804308583,0.09981026134971847,0.3541238563543034,0.12141902739473925,-0.8758748772490296,-0.4670124400811103
-0.5330459804194996,0.0985585280621647,0.3534561234639618,0.12763610663079197,-0.8748357200644559,-0.46730235092864447
-0.5328568898685907,0.09730652392246168,0.3527869137611896,0.13362299967675667,-0.8737931442725781,-0.46757933549252056
-0.5326587442785734,0.09605397277169549,0.3521161314953272,0.1393351057966584,-0.8727512790656408,-0.4678578129965581
-0.532451926671129,0.09480044378503161,0.35144358615478055,0.1447976160789501,-0.8716644612189902,-0.4682250713339264
-0.5322369642574554,0.09354566980532483,0.3507690705300185,0.14997183256330468,-0.8705391771240832,-0.4686896526804577
-0.5320142127983248,0.09228918805686576,0.350092198194556,0.154812877288046,-0.8693891573516759,-0.4692498972883631
-0.531784052279881,0.09103027712118349,0.34941257223004407,0.15934374754520217,-0.8681972454231548,-0.46993947818617815
-0.5315469511365436,0.08976825918383737,0.34872991945608717,0.16348750142332671,-0.8670147009961024,-0.47069878386819414
-0.5313031919922513,0.08850279596758248,0.34804379115579304,0.16728185107707208,-0.8658076322652589,-0.4715866052078391
-0.5310529792618651,0.08723397971698005,0.34735373429725425,0.17067172227508717,-0.8646008374258851,-0.4725849713417829
-0.530796718526064,0.08596190634718345,0.34665937736905184,0.1736718728750948,-0.8633638294518923,-0.47375202222916235
-0.530534823765423,0.08468672645801677,0.3459601481858403,0.1762718192570336,-0.8620786404091895,-0.47513015425887156
-0.5302677523088901,0.0834088225265814,0.34525561691257867,0.17842658633719471,-0.8607589698968314,-0.47671579481930443
-0.5299964535249967,0.08212837622720397,0.34454588183504237,0.1801106044713429,-0.8594129587145728,-0.4785076138897178
-0.5297217318770014,0.08084553822783176,0.34383071990812636,0.18127256811803152,-0.8580751768489521,-0.48046565634135957
-0.5294445786077355,0.07956086209966358,0.3431102166567583,0.18188475008352845,-0.8567654472196156,-0.4825669965275541
-0.5291661079058055,0.078275058168577,0.3423846233443378,0.18190445400276783,-0.8555135808365678,-0.4847754971305257
-0.5288874792571727,0.0769884614320265,0.3416540438023561,0.18130002759588043,-0.8543565362471405,-0.4870371741104796
-0.5286098278168765,0.07570159426816694,0.34091854983060166,0.18010859559878933,-0.8532773664024275,-0.48936553799462545
-0.528334412639375,0.07441474799808566,0.34017853135200715,0.17839314184788763,-0.8522470711354391,-0.49178330256598285
-0.5280623836292062,0.0731281665839599,0.33943423269101564,0.17619170051715705,-0.8512558013854579,-0.4942874116103648
-0.527794612185421,0.07184207887262305,0.33868573820775894,0.17362671465671714,-0.8502399731108964,-0.49693636623002085
-0.5275319025680901,0.07055686746142244,0.33793329371680497,0.1707702820783064,-0.8491741708675246,-0.49974067103883735
