-0.5744230372787275,-0.2061614895502246,0.4621675618441995,-0.04888452344540781,-0.6155225336773542,0.7866017505084295
-0.5745102442420593,-0.2072748933359598,0.46358411609656563,-0.048412095419954816,-0.6189443536131874,0.7839414239261774
-0.5745973061043612,-0.20840540042257097,0.4650089534291031,-0.0480007555921379,-0.6222921215441766,0.7813120010128038
-0.5746844273837001,-0.20955331543550657,0.46644259638409025,-0.047653299012051,-0.6255103974758873,0.7787592090902205
-0.5747718000641726,-0.21071892734596842,0.4678859263902801,-0.04736662557341542,-0.6285612204548238,0.7763164270593083
-0.5748596570261933,-0.21190250193733262,0.4693396018146766,-0.04714592927474023,-0.6314369290771358,0.7739926782279385
-0.5749481726830822,-0.21310414472349717,0.47080417122969,-0.0470119564633159,-0.634117190458544,0.7718064943458653
-0.5750376023517919,-0.21432409439983513,0.47228049953797374,-0.04695316752760827,-0.6365688700795237,0.7697892397954151
-0.5751281389988595,-0.2155625585466352,0.473769480768357,-0.04693190625689652,-0.6387604054873322,0.7679730077006306
-0.575219883159167,-0.21681939432056288,0.4752716712948693,-0.04693332264278876,-0.640689835423806,0.7663640114268967
-0.5753128987075191,-0.21809437965326076,0.47678746114861326,-0.04695531373982016,-0.642355887369547,0.7649667394555641
-0.5754071953815105,-0.21938719922715783,0.47831758130228164,-0.04699163651648104,-0.64372272974939,0.7638146589988286
-0.575502695438707,-0.22069708077840972,0.4798625265539132,-0.047015705118802834,-0.6447723805578781,0.7629273233682934
-0.575599335913953,-0.22202284573771686,0.4814224209652939,-0.04701554297039604,-0.6455022209811314,0.7623099247862547
-0.5756970489560416,-0.22336308286399384,0.4829970491273253,-0.04697780094140661,-0.6459298785978307,0.7619499184023194
-0.5757958600286157,-0.22471631277734097,0.48458599796957585,-0.046872817735597795,-0.6460776385938171,0.7618310993038827
-0.5758956635657183,-0.22608081734500776,0.4861885990852155,-0.04665993260467929,-0.6459667805043974,0.7619381662406147
-0.5759962488948617,-0.2274547999055353,0.48780412825126557,-0.046294792326796015,-0.6456335167933178,0.7622428446345111
-0.5760971310584343,-0.22883613392396834,0.4894314829019161,-0.04573795955769853,-0.6451132350427472,0.7627168236168516
-0.576197828421037,-0.23022259233061404,0.4910691233593912,-0.044922925466606825,-0.6444637225181326,0.7633141169437345
-0.576297617922099,-0.23161193338989639,0.49271506588350655,-0.04378607953422531,-0.6437565225984382,0.7639766481058102
-0.576395714135865,-0.23300231818135408,0.49436741511419097,-0.04228676915816111,-0.6430660914184104,0.7646422897159254
-0.5764909680320685,-0.23439205201656182,0.4960240101671414,-0.04039194378723624,-0.6424587577659657,0.7652550133431998
-0.5765820006551035,-0.23577955247172733,0.49768261387155144,-0.03806167147074207,-0.6420012617579466,0.765758244530255
-0.5766674692112197,-0.23716361169931424,0.49934092195445745,-0.03526311895691634,-0.6417788505596788,0.7660785987193011
-0.5767459926006114,-0.2385434481295089,0.5009966356520426,-0.031991504341220306,-0.641869436114296,0.766146311504729
-0.5768163281007513,-0.23991867324545696,0.5026475056485786,-0.028255895384233128,-0.6423202046647156,0.7659153732988476
-0.5768774068467016,-0.24128944578643433,0.504291669369747,-0.024057458493612693,-0.6431762511760464,0.7653401522290305
-0.5769282896308999,-0.2426561999108923,0.5059274540030637,-0.019414776796137474,-0.6444799232893925,0.7643747084505444
-0.5769682723326277,-0.24401959283812516,0.5075532859417251,-0.014348153960782234,-0.6462693868228853,0.7629744492009478
-0.5769966209691563,-0.24538064256603562,0.5091678621014417,-0.008875687255360122,-0.6485573896465772,0.7611140088781463
-0.577012568434299,-0.24674076074740744,0.5107704923909858,-0.00303746784531571,-0.6513415830350797,0.7587785684891508
-0.5770155022564003,-0.24810109803904734,0.512360315021215,0.003131820303000497,-0.6546242415931461,0.7559479439883331
-0.5770050975654805,-0.24946269826312534,0.5139365736628172,0.009589118813853428,-0.6584110080120802,0.7525974975568881
-0.5769808105585623,-0.25082695481999895,0.5154985855984049,0.016306044504196638,-0.6626839926803791,0.7487216029725724
-0.5769421245721348,-0.252195236010592,0.5170458659882262,0.023258040131920243,-0.6674334344331652,0.7443061696438984
-0.5768884769269703,-0.2535687861053347,0.5185777683183324,0.030409066108700374,-0.672646954090212,0.7393384636629944
-0.5768195961533605,-0.2549486241608702,0.5200935918795693,0.037718274298760054,-0.678309418619308,0.7338076480906013
-0.5767353472478787,-0.2563353687863138,0.5215921458274213,0.04514885563687792,-0.684413385779822,0.7276949211036728
-0.5766357776424126,-0.2577294618583387,0.5230719391709071,0.05269746130481817,-0.690969527677989,0.720960532479056
-0.5765209378499423,-0.25913144842506625,0.5245311666444382,0.06032592139781215,-0.6979682786283977,0.7135832573960913
-0.5763911348872374,-0.2605415762169982,0.5259682629638156,0.0680164340263861,-0.7054078580258116,0.7055306644914667
-0.5762466100680125,-0.2619597336215503,0.5273812070409564,0.07577413248182203,-0.7132860853754045,0.6967648392796945
-0.5760876396086553,-0.2633857930850722,0.5287678651999079,0.08361030602389265,-0.721602766777509,0.6872399607892681
-0.5759144042501694,-0.2648197604333694,0.5301262631713324,0.09155803657404325,-0.730361368432512,0.6768968883368385
-0.5757269317125187,-0.26626178781796656,0.5314544324354322,0.09965368894264102,-0.7395313460323417,0.6657045369499266
-0.5755253169379673,-0.26771199247907035,0.5327502967420409,0.10793523541818585,-0.7490634150236191,0.6536466822591348
-0.5753095667499342,-0.2691702581712464,0.5340119884426887,0.11645700138169968,-0.758926923546416,0.6406775253944493
-0.5750794051232241,-0.27063692387970545,0.5352379421404254,0.12527600388567328,-0.7690885090305548,0.6267445956109993
-0.5748344345609749,-0.2721122382707504,0.5364266376522073,0.13444044472808792,-0.7794739472404432,0.6118383221037375
-0.5745739444050176,-0.2735967229162757,0.5375767403164164,0.14397544684592675,-0.7900003558870563,0.5959618346872894
-0.5742972507646436,-0.27509074756051277,0.53868721922912,0.15387476664407163,-0.8005898242408592,0.5791187179777758
-0.5740037652179037,-0.2765942147978358,0.5397567471635711,0.1641377742465049,-0.8111577226336543,0.5613216012921531
-0.5736929290866384,-0.278106851239672,0.5407840878005079,0.17474665967796835,-0.8216199048260278,0.5425903951647699
-0.5733638896052152,-0.2796285760396627,0.5417682225444206,0.18567212401982225,-0.8318990499354174,0.5229434320062905
-0.5730162569357664,-0.2811585331739846,0.5427083309982671,0.1968471681815991,-0.8419165776514045,0.5024218035223312
-0.5726496913031811,-0.2826959599917413,0.543603393268556,0.20820034741153684,-0.8516054096100415,0.48106220144657885
-0.5722642095195516,-0.2842397631026265,0.5444523517093779,0.21965494302663574,-0.8609023683804246,0.4589104685240262
-0.5718600985272078,-0.28578875082607574,0.5452543588299795,0.23113342310168403,-0.8697598158052353,0.43599908662259956
-0.5714378371344008,-0.2873417973667337,0.5460087034394921,0.24255615629528324,-0.8781495314051989,0.4123347081390163
-0.5709980545572749,-0.2888978459123952,0.5467148115589969,0.25382880901376925,-0.8860354766935704,0.38795885059507157
-0.5705417248429727,-0.29045505655108717,0.5473720871859956,0.26489024723435833,-0.8933850993535645,0.362899739836146
-0.5700697347559219,-0.2920121085197837,0.5479800925758832,0.2756851730372954,-0.9001844692156304,0.3371433029890557
-0.5695830327894106,-0.29356777114072147,0.5485384764158994,0.2861640225231925,-0.9064275669387439,0.31064323283608597
-0.5690825568107296,-0.2951209622918293,0.5490467454445374,0.296293003498494,-0.912078700094844,0.283412951205729
-0.5685692004388835,-0.2966709189432318,0.5495042935862778,0.3060340052766842,-0.9170845460086425,0.25553693096386754
-0.5680437945451745,-0.2982169473682501,0.5499107718326448,0.31534506528208023,-0.9214167749694843,0.2270432042741548
-0.5675068828382395,-0.2997589084515004,0.5502661358822509,0.3241880459202134,-0.9250364702192777,0.19801424101991494
-0.566958702973164,-0.3012975317652296,0.5505703901679693,0.33253433909019897,-0.927896528714971,0.16860885304322476
-0.5663995286928635,-0.30283340717815616,0.5508235717465046,0.3403461942086512,-0.9299718761952012,0.1389848105861373
-0.5658294427284093,-0.3043679528954896,0.5510258013503172,0.34759476255737726,-0.9312454831093425,0.1093605561028659
-0.5652485862470855,-0.3059023676682555,0.5511776486501095,0.35425806027264156,-0.9317228435750298,0.0799610498450706
-0.5646569239124599,-0.3074382071372085,0.5512801019211625,0.36033136511559805,-0.9314263607127713,0.05105136514621155
-0.5640541098122144,-0.30897726625993194,0.551334571794044,0.36580695804754354,-0.9304105085233163,0.022837580287470807
-0.5634396740743185,-0.3105215993761492,0.5513424211907181,0.370678294023053,-0.9287504932970304,-0.004485926958996428
-0.5628133434028819,-0.3120727290815067,0.5513051316187713,0.37492727279545035,-0.9265439938316294,-0.030753334919960053
-0.5621747624884879,-0.3136324733273634,0.5512243587144395,0.3785413371272248,-0.9238980103902917,-0.05584731401592346
-0.561524028978158,-0.3152018493511959,0.5511017108307311,0.38150572535048377,-0.9209185231365702,-0.07976500027430238
-0.5608615042123465,-0.3167817240742732,0.5509384285216882,0.3837988817108174,-0.917699827324126,-0.10259359301045698
-0.5601876861256646,-0.3183728179438308,0.5507357823137503,0.3853939143431688,-0.9143232907744591,-0.12443653295802719
-0.5595034115905528,-0.3199753492290371,0.5504950606816482,0.38627207333074925,-0.9108534117067755,-0.14539583125692226
-0.5588099238101463,-0.3215893766110548,0.550216842545042,0.3864138793994448,-0.9073325239931916,-0.16562609912575885
-0.5581086703908347,-0.32321467618570815,0.5499016853610181,0.3857652575250886,-0.903786392295624,-0.18535189016533538
-0.5574015887757364,-0.3248503478913755,0.549549543354123,0.38429496775098465,-0.9002238825974218,-0.20472991711641292
-0.5566908692479866,-0.3264954847735618,0.549159606883351,0.381980809578669,-0.8966520628928254,-0.22384311296902842
-0.5559789060090894,-0.3281485874189389,0.5487313937954441,0.37881662824711126,-0.8930702206599552,-0.24274172104083913
-0.5552680311138993,-0.3298080971327012,0.5482645671697101,0.3747867404628356,-0.8894742388583879,-0.2614774896248905
-0.5545605911266134,-0.3314725192238207,0.5477589145492091,0.3699115946399474,-0.8858549231013775,-0.28004725916884804
-0.553859045841714,-0.33314034160590317,0.5472139022991502,0.3642263625466559,-0.8822074185258789,-0.298411171915424
-0.5531658244034122,-0.3348098128685739,0.5466297179372965,0.3577779601263589,-0.87852797756473,-0.3165178097419592
-0.5524832433918827,-0.33647937135985867,0.5460070911883966,0.3506215376181701,-0.8748230847898111,-0.3342889583535614
-0.5518135854843013,-0.3381470429701562,0.5453475380578284,0.34280593236926693,-0.8710945992672572,-0.35167924570530784
-0.551158810959799,-0.33981128161584945,0.5446527766632338,0.334384560105696,-0.8673394064323345,-0.3686588124709968
-0.550520517434844,-0.3414707847835294,0.5439247174175253,0.3254014418085088,-0.8635458613459259,-0.3852303817474246
-0.5499000575130765,-0.34312441302854074,0.5431652286382803,0.3158719921502925,-0.8596961274823435,-0.40143175380986956
-0.5492987430566668,-0.3447708129004567,0.5423761963896129,0.30579368593561534,-0.8557561332537785,-0.4173387856890989
-0.5487179310831812,-0.34640830482162877,0.5415593404253448,0.2951862120656626,-0.851680393339687,-0.4330191771816595
-0.5481593113324931,-0.3480347580176749,0.5407156863160544,0.2840505046019872,-0.8473933473309003,-0.4485976211870595
-0.5476244319394791,-0.34964794921733844,0.539846101566381,0.27239713963189777,-0.8428162059992409,-0.46417738120831087
-0.547114736296699,-0.3512454798477598,0.5389516091882368,0.2602488995351992,-0.8378800337449943,-0.47982034069243573
-0.5466316341760307,-0.3528249048922943,0.5380329869018885,0.24763761767259268,-0.8325098118934063,-0.4955835181022952
-0.5461763549144626,-0.3543841262506316,0.537090649687936,0.23455853093916498,-0.8266171040760774,-0.5115529872970546
-0.545749891628253,-0.35592095923724126,0.5361250363107681,0.22099903748945568,-0.8201007582827586,-0.5278202077343936
-0.5453532867833196,-0.3574332442235399,0.5351363729665592,0.20701968338572765,-0.8129050755311492,-0.5443603483599533
-0.5449872639092268,-0.3589190378165461,0.5341247720509908,0.19270626697301094,-0.8049945108451891,-0.5611132970964433
-0.5446522279959334,-0.36037652916725316,0.5330904900506599,0.17819482289398958,-0.7963702425745247,-0.5779628377634434
-0.5443479376959961,-0.3618047635227189,0.532033599554233,0.16363699616750588,-0.7870581306320674,-0.5947793141083768
-0.54407383047343,-0.3632029198307727,0.5309543877671783,0.1492398399634041,-0.7771259821426534,-0.6113940448242148
-0.5438287639484682,-0.36457074643644516,0.5298533511952828,0.13519321750072194,-0.7666499634959767,-0.6276707954122289
-0.5436113925783367,-0.3659079455690058,0.528731470587406,0.12165464952744862,-0.7557142990286989,-0.6435029483164127
-0.5434202370734814,-0.3672141947873052,0.5275900931930584,0.10874328113316241,-0.7443923463465688,-0.6588284552970096
-0.5432536738687137,-0.3684890021203371,0.5264310950581939,0.09657047525682923,-0.732756269978949,-0.6736040321399565
-0.543109581957522,-0.369732353154542,0.5252565081211676,0.0852345966935726,-0.7208761380384829,-0.6878027748804202
-0.542985690599028,-0.3709444413205217,0.5240682892191892,0.0748238124937695,-0.7088292785811973,-0.7014003499499816
-0.5428797099241742,-0.37212550143523826,0.5228684495673578,0.06541306464019798,-0.696683916406577,-0.7143897056892483
-0.5427892340328028,-0.373275940476259,0.5216586539955911,0.05708846851469159,-0.684532003392158,-0.7267440010722934
-0.5427121632611372,-0.3743957509077973,0.5204404995678923,0.04991141927317808,-0.6724497586283633,-0.7384579692486181
-0.5426466146026431,-0.37548488084167136,0.5192152382317888,0.04388283466788385,-0.660474170854643,-0.7495653183381573
-0.5425904835851538,-0.3765433134267109,0.5179846057144218,0.03899426423203032,-0.6486281728925496,-0.760105874656337
-0.5425417955688674,-0.3775712379411776,0.516750045605123,0.03522097006028102,-0.636934642838793,-0.7701128125280297
-0.5424983002672036,-0.3785691991470182,0.5155132465168787,0.032488511080228585,-0.6253902816270632,-0.779635486810479
-0.5424578328877568,-0.37953779482024685,0.5142760696093526,0.030621271622510493,-0.6139224711604728,-0.788772170609764
-0.5424185196034235,-0.3804777562025968,0.5130400770590902,0.02949608889954444,-0.6025124706289798,-0.7975642315677108
-0.5423789911449801,-0.3813896166916295,0.5118063995570155,0.028966280196869056,-0.5911394638919701,-0.8060490610633267
-0.5423380896021064,-0.3822741820754347,0.5105759475562686,0.028831670509731157,-0.5797431579126038,-0.8142890184873796
-0.542295156442935,-0.383132242410829,0.5093489473883277,0.028867911349542454,-0.5682654756548006,-0.8223387336573282
-0.5422499497433502,-0.3839645836166087,0.5081250606157068,0.028830579938042753,-0.5566475860017315,-0.830248313854886
-0.5422030238202586,-0.3847713948956496,0.5069036842309587,0.02845197972202896,-0.5448357822739277,-0.8380599353291234
-0.542155397007366,-0.3855529303171597,0.5056841699517237,0.02743852358235402,-0.5327439460152986,-0.8458315526200647
-0.5421086506809596,-0.38630920005650593,0.5044653266748911,0.0255187253910763,-0.5203171028158824,-0.853591768453575
-0.5420647704783668,-0.3870399229740854,0.5032465325943307,0.022464162877541136,-0.5075358556739368,-0.8613377482680856
-0.5420259408992798,-0.38774484235319295,0.5020275245517696,0.01815765272254696,-0.49445484380574983,-0.8690136403328999
-0.5419943526387151,-0.3884239886010554,0.5008083040552341,0.012555155675323818,-0.48117675438220014,-0.8765336839552602
-0.5419723109667823,-0.38907760006473363,0.49958855934721913,0.005709895475745462,-0.4678722560384545,-0.8837776581941541
-0.541961682370764,-0.3897063260992199,0.49836855538225505,-0.0022299193741394142,-0.4547464119390938,-0.8906181719952186
-0.5419639715277224,-0.3903111288716752,0.49714864246681967,-0.011132589804019351,-0.44199085707365326,-0.8969504711563248
-0.5419807992846957,-0.39089292056476604,0.49592915647690833,-0.0208736795216189,-0.4297421221412384,-0.9027103621653924
-0.5420130979300143,-0.3914530648057933,0.49471085092025446,-0.031289031840151964,-0.418148035821722,-0.9078398628750238
-0.5420613304882758,-0.39199308138356087,0.4934949195396552,-0.042140528829579464,-0.4074070735286996,-0.912273891037524
-0.5421255353659035,-0.3925144171640135,0.49228284446958687,-0.05322139966428667,-0.39765581317155585,-0.9159898126445746
-0.5422051085091933,-0.3930185709542238,0.491076981405096,-0.06437409553402232,-0.38897094030065743,-0.9189981411438213
-0.5422993095849757,-0.3935067835047612,0.4898799700083917,-0.07545255577672698,-0.38142401235149126,-0.9213157084455086
-0.5424071755564067,-0.3939804321035564,0.48869471558698513,-0.08627683339163672,-0.3751293024719949,-0.9229487062923846
-0.5425275598259259,-0.39444086875875667,0.487523914778571,-0.0967415043179257,-0.37008565775687297,-0.9239467989364796
-0.5426592879066122,-0.39488932630847284,0.4863703617549895,-0.1067719201072143,-0.3662837186048065,-0.9243570709210015
-0.5428013314504022,-0.3953267326866194,0.48523644300354474,-0.11629746784140069,-0.36373162922055485,-0.9242154515470076
-0.542952534446932,-0.395754128848283,0.4841239664441694,-0.12524835816402116,-0.36244441377344444,-0.9235512415137783
-0.5431117138335213,-0.3961725721615217,0.4830344460664289,-0.13356691839699003,-0.36239436901817756,-0.922404574801019
-0.5432774240521684,-0.396583411738152,0.4819690612678553,-0.14117254738636162,-0.3635867481633965,-0.9208012752078553
-0.543448005637,-0.39698807346790527,0.4809286554142896,-0.14800801545712913,-0.3659750938758169,-0.91877954810881
-0.5436219031029598,-0.3973878109072115,0.479914206504846,-0.15407781435067694,-0.36945930028397594,-0.9163841184561161
-0.5437975600990277,-0.39778376385554937,0.4789265066520954,-0.15938364904362684,-0.37389960719892823,-0.9136716785333915
-0.5439736674075287,-0.3981767747957098,0.47796616991159224,-0.16397422757404342,-0.3790592287507481,-0.9107285840415814
-0.5441489273490727,-0.3985675221208033,0.4770334040903211,-0.16789915228532937,-0.3847166271665817,-0.907635935517891
-0.544322239659106,-0.3989562624071147,0.47612852602606304,-0.17122560682871135,-0.3906210009433791,-0.9044871614280283
-0.5444930378252119,-0.39934251181434105,0.47525145797716767,-0.17406340058767997,-0.396473286683037,-0.9013938459533676
-0.5446610120245728,-0.3997256079835505,0.4744018273585112,-0.17652065188868152,-0.40196952462648367,-0.8984770229273277
-0.5448259039634533,-0.400104424228917,0.47357928525138143,-0.1786225711010481,-0.40688067616247714,-0.8958471367698937
-0.544987610024447,-0.4004772164455767,0.47278354561180264,-0.1804060209165355,-0.4109538074839508,-0.8936277948516969
-0.5451458795467033,-0.4008419127822499,0.4720145927300268,-0.1819355556379157,-0.41390138511328,-0.891955770762223
-0.5453004712546413,-0.40119646979654583,0.47127218201509813,-0.18317872318024225,-0.4155750183929392,-0.890922532806172
-0.54545107153031,-0.4015388533061214,0.4705562834739109,-0.18405200533597782,-0.41594671768113317,-0.8905690244905764
-0.5455971943411088,-0.4018672499631625,0.46986709919049385,-0.1843809047067224,-0.41500567084131135,-0.8909399391367994
-0.5457381371637466,-0.4021802526766155,0.46920468673997096,-0.18395838234255202,-0.4128283492816833,-0.8920381536656782
-0.5458730840635698,-0.4024767662134788,0.4685691236302777,-0.18257922180956498,-0.40956159391555835,-0.8938255582342457
-0.5460011423987804,-0.4027561241935334,0.4679603510047544,-0.18002110775027944,-0.40539470089343566,-0.8962407808462436
-0.5461212250400306,-0.40301815845661615,0.46737825978771685,-0.17611969315402415,-0.4005252524800995,-0.8992004091464177
-0.5462323088027778,-0.4032630230999815,0.4668224279331628,-0.17074065117837145,-0.3951154616710417,-0.9026247293220286
-0.5463335319155479,-0.40349101031100715,0.46629258358004816,-0.16383884316851266,-0.38939937968761806,-0.9063801391072631
-0.5464242085946444,-0.4037026092529097,0.46578868119842526,-0.15544035487161706,-0.3835393605299669,-0.9103493038398227
-0.5465038677533333,-0.4038987129698436,0.4653104443636498,-0.14565684217902547,-0.3777212069588947,-0.9143909306964666
-0.5465723415215987,-0.40408009285395136,0.46485784988465145,-0.13469689574254265,-0.37203377816325633,-0.9183940408032358
-0.5466297220179718,-0.404247595713772,0.46443111129819253,-0.1227638430272964,-0.36656180326012205,-0.9222589024974802
-0.5466763575313732,-0.4044020715385716,0.46403032058696614,-0.11012984102337992,-0.3614048862256654,-0.9258822421498205
-0.5467131572481152,-0.40454416439941526,0.46365547010143787,-0.09723836837662496,-0.3564900984374015,-0.9292252199717481
-0.5467413167585479,-0.40467430832313783,0.46330678971681805,-0.08449787887125475,-0.3517748805412407,-0.9322631291038246
-0.5467621617282932,-0.4047929615033063,0.46298458039981666,-0.07230566579454463,-0.3472004249083769,-0.9349993345652445
-0.5467770849319297,-0.40490034010226666,0.46268890878117847,-0.06097057788031757,-0.3426950456152026,-0.9374661030371895
-0.5467873520853455,-0.4049965751259461,0.4624199522756913,-0.05085283684099118,-0.33813126754780276,-0.9397240205995266
-0.5467941339859925,-0.40508181875280885,0.46217777863029014,-0.04225332494191048,-0.3333946676656312,-0.9418400353050811
-0.5467985338140472,-0.40515626306605657,0.4619621667791241,-0.03521084868837075,-0.3285335669853662,-0.9438357333236099
-0.546801488702553,-0.4052201111186666,0.4617729940999526,-0.029773797946149885,-0.32349078804955383,-0.9457627773405658
-0.5468036726128498,-0.40527376473327964,0.46160979936357704,-0.02596826690769219,-0.3180855520341772,-0.9477062998107186
-0.5468055061994501,-0.4053178608202381,0.4614718629476392,-0.02371935507204242,-0.31232088819947207,-0.9496805015315726
-0.546807245572134,-0.4053531482428511,0.4613579893238505,-0.022890712517957122,-0.30620077264451495,-0.9516917053922044
-0.5468090188238252,-0.4053805450598264,0.46126663197595913,-0.023520478710975134,-0.29967755620817377,-0.953750569796057
-0.5468108430963943,-0.40540100711404903,0.4611959818725031,-0.025784362973354034,-0.2925509184853248,-0.9559022579319766
-0.5468128998319305,-0.4054157288168022,0.46114220479394635,-0.028700775068921606,-0.28576458030959295,-0.9578699651575497
-0.5468149387394378,-0.40542478289692646,0.46110623455791777,-0.0313218524989944,-0.2807372058341417,-0.9592734557030492
-0.5468168063985669,-0.4054295153973628,0.46108475070958793,-0.03164768680290245,-0.2803680581315834,-0.9593707187003105
-0.5468182875735396,-0.4054312920903127,0.4610743762964241,-0.024120257510960363,-0.2921847668765619,-0.9560576735651958
-0.5468191758045466,-0.4054311393765234,0.46107220037794283,0.007594361381232642,-0.335227081953271,-0.9421067504270979
-0.5468192546158176,-0.4054300764082717,0.46107553299926524,0.11984253124277522,-0.46932167235268535,-0.8748570943676476
-0.5468184664236531,-0.4054289862024673,0.461081920390228,0.43666738765733903,-0.7624197268361677,-0.4775329859680677
-0.5468168315980845,-0.4054285406587635,0.46108948121435217,0.6156102853802382,-0.7578815537346705,0.21596186478816934
-0.546814254671324,-0.4054293613914821,0.4610969549832368,0.6155678534471006,-0.7100111031356371,0.3419948116955057
-0.5468106507422077,-0.40543196090184513,0.4611033301325102,0.6177256643266517,-0.7302513732682379,0.29180119169059193
-0.5468059789805445,-0.40543664079869135,0.4611079187557971,0.6172064533243226,-0.7579164260016572,0.2112318280271359
-0.5468002150034988,-0.40544348633442023,0.4611105659292742,0.6124024542439855,-0.7795016271332166,0.13168313230103162
-0.5467933671380234,-0.40545244286065707,0.4611113818396478,0.6055490515144003,-0.7929645242118519,0.06721316501609947
-0.5467855297984008,-0.4054632931873032,0.46111060730833536,0.5993058580697638,-0.8002028657555181,0.022535796411943837
-0.5467768943896375,-0.4054756627965192,0.4611085559589373,0.5955619630642146,-0.8033087766983178,-0.0009784838023801322
-0.5467672326329367,-0.4054886977833571,0.4611085402503282,0.5956206448077487,-0.8032652589317811,-0.0009855313592625353
-0.5467565770942614,-0.40550307260079743,0.46110852127915036,0.5956853251823552,-0.803217318063739,-0.0009660874110734641
-0.5467449006497805,-0.4055188241369831,0.4611084966860991,0.5957542817474056,-0.8031662245321586,-0.0009227948801305552
-0.5467321789478441,-0.40553598243658007,0.4611084690990191,0.5958283570943216,-0.8031113616183057,-0.0008424499229518667
-0.5467183678867825,-0.4055546055179346,0.46110844002250373,0.5959056297598108,-0.8030541383412336,-0.0007289126027433718
-0.5467034395359532,-0.40557473046602305,0.46110841163078164,0.5959864164257707,-0.8029943005768092,-0.0005870920957389919
-0.5466874223198215,-0.40559631719507855,0.4611083867666465,0.5960680780248176,-0.8029337863064797,-0.0004256375690400037
-0.5466704204521723,-0.4056192240906337,0.46110836790269005,0.5961447035362092,-0.8028769661967355,-0.00026381139316131847
-0.5466526021005043,-0.4056432259518726,0.4611083518502779,0.5962162780354225,-0.8028238532750834,-0.00010206926575668156
-0.5466342250652078,-0.4056679728048891,0.4611083436241895,0.5962824652452736,-0.8027746995747126,5.799783562048374e-05
-0.5466156095848831,-0.40569303362398135,0.4611083437874431,0.5963422852141591,-0.8027302374176717,0.00021166228493678805
-0.5465971405208003,-0.40571789064005587,0.46110835238931713,0.5963948721479972,-0.8026911180716582,0.0003541813735436127
-0.5109194886882583,0.3723185300239959,0.3762351688449384,-0.037897094637258606,-0.10063483631198641,0.9942014081354514
-0.5109210944899536,0.37231496954925386,0.3762691478248046,-0.0348577916358451,-0.09950262309507918,0.9944265495045225
-0.5109222922041012,0.37231212342095804,0.3762980890431725,-0.029686549311187742,-0.0989126327142755,0.9946532058358457
-0.5109229673413401,0.3723100285391779,0.3763212857661581,-0.022067880581890544,-0.09934053985637606,0.9948087583991543
-0.5109230450936739,0.37230864456011126,0.37633827450865087,-0.012588162951095262,-0.10135022768497572,0.9947711643899416
-0.510922495796827,0.37230788280250915,0.37634884028605387,-0.005660702362322142,-0.10620168815860208,0.9943284959614846
-0.5109214035766397,0.37230755349400996,0.37635330531465333,-0.013378577343330146,-0.11305483911532486,0.9934986748963869
-0.5109199425615955,0.3723074492357639,0.37635244287106717,-0.05482097966294167,-0.1150348085681878,0.9918475956549352
-0.5109184347340807,0.37230731998148636,0.3763477278631143,-0.12044480273513058,-0.10143031783962535,0.987524652916092
-0.5109173421391464,0.3723069470408639,0.3763415630936348,-0.16811085483080151,-0.07876076351896358,0.982616650895947
-0.5109172582343466,0.3723061777064897,0.3763374494317884,-0.1867395846603195,-0.05914846676174077,0.9806272413106962
-0.5109189161942681,0.3723048831080896,0.37633971877059613,-0.18889452948495936,-0.04475881238584187,0.9809768118790906
-0.5109230748898066,0.37230299189843885,0.37635344349008687,-0.1843834788813562,-0.03402461124482791,0.9822652689295529
-0.5109304401049937,0.37230063632561405,0.3763840779034149,-0.1778253217264934,-0.0255362049041508,0.9837306832624274
-0.5109416654034663,0.37229801109948324,0.3764369539577434,-0.17092219025714026,-0.018609612407459175,0.985108769224874
-0.5109572559533345,0.3722953975607992,0.3765169418077024,-0.1639435784759412,-0.012698838317543398,0.9863879777156085
-0.5109774920918048,0.3722930656702174,0.37662797714769675,-0.15689824453080267,-0.007525384524918408,0.9875861022973665
-0.5110023814290108,0.3722912269720655,0.3767726848447262,-0.1497838335632788,-0.002959585487353771,0.9887143389558134
-0.5110315394721198,0.37229009078278463,0.37695221987912625,-0.14250018779573834,0.0012510891996407828,0.9897939842482343
-0.5110642042883639,0.37228988642782684,0.3771656577475351,-0.13493511942802017,0.005298177424031638,0.9908402711138306
-0.5110993221489355,0.37229068551952604,0.3774098716202655,-0.12694134045953118,0.009423166644542196,0.9918654646738774
-0.5111355105148756,0.3722927251971781,0.37767963286726663,-0.1183956528864744,0.013732879772167536,0.9928715311613828
-0.5111713101624811,0.37229609463143915,0.37796802524209777,-0.10907328687530173,0.018440882294596117,0.993862642396028
-0.5112051721927282,0.37230088855308785,0.3782669051513701,-0.09867541685592304,0.02386931181356039,0.9948333619565926
-0.5112355363766857,0.37230726514285567,0.37856747770601673,-0.08691736674319946,0.03031343105966759,0.9957542203053016
-0.5112610595039347,0.37231529178208655,0.37886064522514545,-0.07336241422726048,0.03822637638470616,0.996572476203935
-0.5112806828313868,0.3723249863013218,0.37913797443442787,-0.05729846713947571,0.04841894525039636,0.9971822759176505
-0.5112935904256221,0.3723365734418675,0.3793920739614919,-0.037841687137246255,0.06192248574592407,0.99736333022307
-0.5112993724531231,0.3723503260191309,0.3796171850310255,-0.013851285948736887,0.0800922550055119,0.9966912122446443
-0.5112980119712809,0.3723665422592663,0.3798096427678576,0.0162003586135917,0.10476939501261179,0.9943645821576119
-0.5112898578619608,0.37238543869829793,0.3799679265741762,0.05452943427690437,0.13859491621719341,0.9888467980411272
-0.5112755620753144,0.37240712722911445,0.3800924410391508,0.10417040091361308,0.18523773363374096,0.9771568500561885
-0.5112560244594359,0.3724315905604047,0.3801853007572654,0.1688514485051003,0.24932297656699132,0.9535865150543527
-0.5112323629177895,0.37245868708382374,0.3802498766241871,0.252090959826202,0.335576087904366,0.9076556820737176
-0.5112058431291475,0.372488041635621,0.38029037243254726,0.3538878311473118,0.4450099634250499,0.8226357246183073
-0.5111777158790392,0.37251925800065755,0.38031153322630507,0.46336425550060834,0.566830185499458,0.6811733314884085
-0.5111492021037533,0.3725516074030073,0.3803180386648785,0.5559238998956485,0.6739717548194939,0.4865292295744881
-0.5111213164839263,0.37258426584718324,0.38031437200985635,0.6104469972795598,0.7420740926349555,0.27691244925495256
-0.5110948817989612,0.3726163607454405,0.38030456431648413,0.6284946228072857,0.7715725390526224,0.09833781613508256
-0.5110706840714001,0.37264682515569386,0.3802918404735935,0.6261345331996403,0.7791975243648968,-0.02840359763277884
-0.5110493312780349,0.37267464492270613,0.3802786216115629,0.6177262993062447,0.7797742037782662,-0.10181556986720051
-0.5110311450701057,0.37269915046507,0.3802666414606431,0.6120156201282687,0.780979953476997,-0.12452788035648228
-0.5110163523324304,0.3727196817668145,0.3802570681168691,0.6139192124741178,0.7849655554298832,-0.08326029872522686
-0.5110049850217024,0.3727357946085419,0.380250726197568,0.6212725490752558,0.7804836302305163,0.06975473251134104
-0.5109969895196917,0.37274715023162575,0.38024822122690016,0.5859482940936114,0.690367301374695,0.4243319288498191
-0.5109922304949417,0.3727535663002958,0.38025011068800996,0.38171848432533034,0.3663466766824549,0.8485759313155737
-0.5109904517718704,0.3727551486641191,0.3802570324108132,0.14948031386361413,0.042273579342608364,0.9878606077057631
-0.5109912802590301,0.37275224827799036,0.38026985295511384,0.033292877926198804,-0.1124714490485911,0.9930970533781184
-0.510994195161959,0.37274534198614034,0.38029009690990456,-0.012633719597555283,-0.17335383402842916,0.984778572754695
-0.5109985163160333,0.372735048925068,0.3803196048935565,-0.02630827085294531,-0.19230155573622165,0.9809831734266173
-0.511003535631706,0.3727219002529961,0.3803607349527712,-0.02473376342530914,-0.19159672281271128,0.9811620338936122
-0.511008499708459,0.37270640110327746,0.3804162967419921,-0.016013443991733444,-0.18157037073552398,0.9832475629679882
-0.5110126535357521,0.37268906595568513,0.38048913041355154,-0.004500646476366617,-0.1677359975292142,0.9858216772389287
-0.511015322884126,0.3726702629945679,0.3805824118887055,0.007291554720768371,-0.15330054982291902,0.9881527081649601
-0.5110158732727279,0.3726502761291475,0.3806996191109761,0.01801024834522459,-0.14002897058286606,0.9899835949913747
-0.5110138205884969,0.37262927046335836,0.38084393472134936,0.027051985999082703,-0.1287576577590446,0.9913070440695507
-0.5110088463999211,0.37260705546226486,0.3810184990065099,0.03418532033879402,-0.11997525949467713,0.9921881378964973
-0.5110007318540745,0.3725833022525193,0.38122670481079773,0.039444221779702165,-0.11368595447445254,0.9927334270202783
-0.5109894654298246,0.3725574514520113,0.3814719554991507,0.04294090030961541,-0.10979418911544944,0.99302634160282
-0.5109752086405435,0.37252871187967845,0.3817576149156384,0.04489988764534224,-0.10802288644496134,0.9931339567719628
-0.5109581661433518,0.37249628135453927,0.38208665436552103,0.045593649034370874,-0.10803639615905503,0.9931008792024576
-0.5109385869796517,0.37245922500713374,0.38246213487181757,0.04526765576832265,-0.10953793690936951,0.99295129775779
-0.5109168399414453,0.3724164641336043,0.3828871266668953,0.044162535197201154,-0.11229222465547894,0.992693369962185
-0.5108933575212551,0.37236680776801745,0.38336437917666494,0.04246943062185396,-0.11613248343522643,0.9923253467254691
-0.510868616190738,0.37230896866134777,0.38389609585280093,0.040308666146359626,-0.12095388496207903,0.9918393867688867
-0.5108431351582834,0.3722415964746974,0.3844836239475713,0.037842154012293856,-0.12657472041763623,0.9912349930924085
-0.5108174272790008,0.3721634631941682,0.3851272743393091,0.03523152548744459,-0.13282644828548315,0.9905129349219481
-0.510791882172388,0.37207351987282244,0.3858268568232348,0.03258078033186503,-0.13963601092452002,0.989666750581252
-0.5107667610089288,0.37197094906366146,0.38658151329197527,0.029947116011911634,-0.14702967709208015,0.988678635501328
-0.5107423955117549,0.3718547643251123,0.38738928570186687,0.02738749641365665,-0.15500187243180827,0.9875344776679066
-0.5107189923989753,0.3717240447213057,0.38824798204757033,0.02493132296443054,-0.16359446633114114,0.9862125935725382
-0.5106965853857753,0.3715780885126264,0.38915498441160373,0.022551643861082854,-0.17294489825716697,0.9846732887237173
-0.5106752809817552,0.37141588357533994,0.3901074770681789,0.02022372912935546,-0.18317281802529212,0.9828726873388922
-0.5106552422819034,0.37123613590285154,0.391102485220345,0.017927381891697514,-0.1944005936785406,0.9807583892865461
-0.5106365773671402,0.37103743051531407,0.392136701902523,0.01562985580152842,-0.20674118703090097,0.978270815874969
-0.510619558016556,0.3708179576893283,0.3932065372347905,0.013323274308495718,-0.2202330587627223,0.9753562888451153
-0.5106044750465966,0.3705757005199955,0.3943087208171642,0.010984654362601895,-0.23489851139215726,0.9719578317572645
-0.5105915718311109,0.37030846891271235,0.39544018514469104,0.0085970986357439,-0.25072540184836023,0.9680200735330986
-0.5105811626349935,0.3700138510643191,0.3965980600837553,0.006153024149279479,-0.26767055587305555,0.9634908478093749
-0.5105736978242804,0.36968923065799486,0.39777980906113464,0.0036500672193411827,-0.2856549849182896,0.9583255744268886
-0.5105695641757935,0.36933221142880757,0.3989831785076384,0.0011084731153135584,-0.304546290877932,0.9524968913334293
-0.5105690059004835,0.3689404927440008,0.4002067847425898,-0.0014280567917522682,-0.32415980746274276,0.946001257863602
-0.5105722829531908,0.3685118655325849,0.4014495488865803,-0.0038921415916673254,-0.34428285073079173,0.9388579072077466
-0.510579477297819,0.3680443259161123,0.4027101638733797,-0.006249376422643621,-0.3647260096708779,0.9310939174776554
-0.5105904265072533,0.36753645949366814,0.4039869900858926,-0.00844968971959306,-0.3852141143569964,0.9227885396144653
-0.5106048699430448,0.36698736380764807,0.4052784822688043,-0.010439754207996563,-0.4054731075628051,0.9140473568559994
-0.5106225280782999,0.3663964683480815,0.4065833371895563,-0.012211550838696728,-0.4253192572569281,0.9049609977410789
-0.5109748158999021,0.35616345412998457,0.42292065264746753,-0.019804011664813038,-0.6097444931094204,0.7923505879626239
-0.5110084949749379,0.35506737180062825,0.4243217413488199,-0.02023078822272074,-0.6206879968726633,0.7837966099353124
-0.5110426469727147,0.353937206522207,0.42572662276084255,-0.020872183632536057,-0.631132615957873,0.7753940759540155
-0.5110778525557244,0.35277352552346336,0.4271347554601729,-0.021771396744399405,-0.6410581898515652,0.7671834223365575
-0.5111148315703128,0.3515768677767352,0.42854596598130756,-0.022974904386584456,-0.6504549697892152,0.7591972642501673
-0.5111543262600466,0.35034802770110646,0.42995994708044916,-0.024549600804161895,-0.6593113763590938,0.7514691118760861
-0.5111972015611936,0.34908820264648044,0.43137608448371584,-0.026546729158673735,-0.6676402391439089,0.7440106062730828
-0.5112444662618283,0.34779856472046417,0.432794159212291,-0.029046617229260725,-0.6755312502852989,0.7367589998876958
-0.511297149158594,0.34648031211233504,0.4342137375914477,-0.03211238471239619,-0.6830742433255713,0.7296426336593013
-0.5113564152406124,0.3451347650583179,0.43563405900320956,-0.035772215660802846,-0.6903566978489962,0.7225842361425737
-0.5114236480615489,0.34376294137827756,0.4370544964036553,-0.04003033566472622,-0.6974183294306477,0.715545418544996
-0.5115005064717073,0.34236544089625087,0.438474101166405,-0.04486750795714844,-0.704276557374453,0.7085064837123961
-0.5115883393860245,0.34094322474957306,0.4398920221752115,-0.05022879792152676,-0.7109045984654678,0.7014924944288501
-0.5116884884276097,0.33949699749900636,0.441307434250346,-0.056075175608684566,-0.7172887659131275,0.6945159472433141
-0.5118023707924724,0.3380274672350188,0.442719352621253,-0.062391434575690116,-0.7234418350372178,0.6875603393227175
-0.5119312554780766,0.3365352996638678,0.44412643840090354,-0.0691710790356782,-0.7294066966016977,0.680574193440832
-0.5120761899839515,0.3350212918978886,0.44552804977327,-0.07639526296418353,-0.7352715827126379,0.6734533862502183
-0.5122382290402754,0.3334860574327412,0.4469231901867678,-0.0840241056203458,-0.7410995614505348,0.6661166487129156
-0.5124181258751354,0.3319305474268843,0.44831081027148745,-0.09200705057903925,-0.7469476256489517,0.6584861024965826
-0.5126165638078873,0.33035567241223496,0.44968935445556096,-0.10026374118558132,-0.7528498931524075,0.6505107382540887
-0.5128342173236291,0.3287623852079732,0.4510571782958024,-0.10869911365277643,-0.7587994784878836,0.6421898894700979
-0.5130714325701435,0.3271518689354361,0.4524123768560359,-0.11720259657666585,-0.7647626523930338,0.6335626542501216
-0.5133283725238438,0.3255253463232617,0.4537527652292299,-0.12568487220362207,-0.7707580745323003,0.6246081198979246
-0.5136049694789426,0.32388409809090724,0.4550760920380265,-0.1340861874613605,-0.7768313341787099,0.6152673992421526
-0.5139008086388624,0.32222960553247176,0.4563798028753018,-0.1423614308496817,-0.7830733921352644,0.6054166214568292
-0.5142151821882329,0.32056347562522053,0.4576607375855865,-0.15046044740539896,-0.7895651255402328,0.5949357665304749
-0.5145469490603659,0.3188877242733528,0.45891572330564456,-0.15831697392202382,-0.7963917645367657,0.5836916079113953
-0.5148946521769051,0.3172043824311852,0.4601414906274163,-0.16585695856968652,-0.8036244005305911,0.5715586515536802
-0.515256518032567,0.3155156897383462,0.4613345465137813,-0.17300498153409485,-0.8113076689101367,0.5584345465065601
-0.5156306477140629,0.31382399161639707,0.46249118618954893,-0.1796614138874289,-0.8194614164093098,0.5442469691017283
-0.5160150410760489,0.31213149157976244,0.46360776227390627,-0.18572897273844766,-0.828066040347416,0.5289720044660893
-0.5164074651924826,0.310440338907135,0.4646802619920797,-0.1911527257882412,-0.8371583416102953,0.5124710201523842
-0.5168054249129354,0.3087529030856792,0.4657048306818269,-0.19589174042852286,-0.846772533814045,0.49457325242073735
-0.5172065737860949,0.3070710779251206,0.4666772210800587,-0.19993151412651378,-0.8569330715091977,0.4750716794473145
-0.5176087003323429,0.3053965512824237,0.46759325635875243,-0.20323381699254425,-0.867635274714725,0.4537676120012806
-0.518009460953678,0.30373059078714193,0.46844937247076085,-0.20575434377506865,-0.8788294467077765,0.43049268706563915
-0.5184066730244945,0.3020741313938943,0.4692430340833916,-0.20742298991154093,-0.8904172454161903,0.40513310445037803
-0.5187982194757197,0.3004276908892417,0.4699719648369282,-0.20815889751964398,-0.9022459165375905,0.37765351775754685
-0.5191821090413755,0.29879157706546017,0.4706345645130702,-0.20790336475607918,-0.9141410310462362,0.34802638733409974
-0.5195574626189504,0.29715934933135374,0.4712269328957981,-0.20667315729183025,-0.9256079840306732,0.3170742278295402
-0.5199216114563715,0.29553936362628996,0.4717511878281231,-0.20444178003776245,-0.9366723181392368,0.28433875396551106
-0.5202726618946538,0.29393561366581744,0.47220799635996047,-0.20122173732945703,-0.9472299925478845,0.2495298652343032
-0.5206095684558253,0.29234833339070687,0.4725975229270918,-0.19706684337307923,-0.9570862289492584,0.21248672805297258
-0.5209320011350766,0.2907749237207384,0.47291929052088694,-0.19208583177234084,-0.9659669236429005,0.17323664641235395
-0.5212400627521434,0.28921077427908554,0.47317232567654904,-0.18639844472417447,-0.9735568376791589,0.132070828014989
-0.5215342064900699,0.2876501261457826,0.4733558953118133,-0.1801400903236423,-0.9795588303470963,0.08952120278022739
-0.5218153044454261,0.28608678019161454,0.4734690702320167,-0.17348140402231582,-0.9837522965841845,0.04621278420295341
-0.5220846601829349,0.28451409293425506,0.47351086259885516,-0.16662391952087044,-0.9860164789333064,0.0028235997356813635
-0.5223437674059078,0.2829262236796407,0.4734807231788692,-0.1597919490633324,-0.9863412360249663,-0.039968726915968034
-0.5225941754174694,0.28131810743996183,0.4733780232481338,-0.15317813684559198,-0.9848353585505307,-0.08146026602682273
-0.5228375605203641,0.2796858393991749,0.4732028017934818,-0.1469749950440531,-0.9816990372655475,-0.12110058242509607
-0.5230753733342396,0.27802717501688634,0.4729555498875312,-0.1413257208647028,-0.9771831579110936,-0.15855635123505704
-0.5233089127472825,0.27634173278472096,0.4726373381303283,-0.13631303335447428,-0.9715739705051184,-0.19355303349372002
-0.5235392906586214,0.2746310107380711,0.4722500373305039,-0.131959748747434,-0.9651399317175388,-0.22603437109160804
-0.5237655613698842,0.27291097055369007,0.4718011340844204,-0.1282606999993967,-0.9581619321529699,-0.25588064524022197
-0.5239881265908082,0.2711875791597233,0.47129529101471496,-0.12515990301535715,-0.9508143764364311,-0.28334964308957084
-0.5242073288358233,0.2694666967382,0.4707378035382651,-0.12262522540899598,-0.9432595539071259,-0.3085846205764681
-0.5244234166321431,0.26775433136473453,0.4701343357339828,-0.12062350051008398,-0.9356117888972961,-0.3317838929199173
-0.5246366297488259,0.26605675406248147,0.46949057820294954,-0.11913177747209222,-0.9279617670552446,-0.35312119517248997
-0.5248472294797879,0.2643801020640939,0.468812373925545,-0.11812716149901518,-0.9204017858377522,-0.3727016586263897
-0.5250540200698788,0.2627407100383397,0.46810956611902227,-0.117589822990111,-0.9130407005026158,-0.39055001312872467
-0.525257574904805,0.2611404151720081,0.46738703327300957,-0.11747212343556852,-0.9059791257713565,-0.40669659929990465
-0.5254584524793482,0.2595793645702608,0.4666491148048253,-0.1177120984730033,-0.8992901797541056,-0.4212137633920696
-0.5256574460033712,0.2580557238743785,0.46589914403272914,-0.11822419360707927,-0.8930317912401851,-0.434185743524937
-0.525855117285401,0.2565663352312847,0.46513985951827735,-0.11894509824404706,-0.8873117030797271,-0.44556706025184173
-0.5260521787325279,0.25510704921179106,0.4643737293870424,-0.11978571408426116,-0.8822138164207718,-0.45535718377732914
-0.5262492701089816,0.253672779506291,0.4636022948242418,-0.12068549643099495,-0.8778141542882661,-0.46354861825096655
-0.5264470284533848,0.2522579238799486,0.46282727346029323,-0.1215609320178242,-0.8741869753988771,-0.4701277186573036
-0.526645655155403,0.25085732324632776,0.4620498737328018,-0.1223359696896198,-0.8713802280522267,-0.4751109435487144
-0.5268450804150681,0.24946647251694265,0.46127127348669344,-0.12296392222090137,-0.8694140690969453,-0.47853845225681096
-0.5270449476063757,0.24808200550645376,0.46049276209462847,-0.12338436801211088,-0.8682472313843157,-0.48054452751407173
-0.5272446680172853,0.24670241029810414,0.459716285537656,-0.1235630935105118,-0.8678091246912807,-0.48128939841291507
-0.5274434345221926,0.24532849791345002,0.4589440967060863,-0.12347422566248592,-0.8679805711421738,-0.4810029560374398
-0.527640041871471,0.24396414642200218,0.458179456164014,-0.12312167747786557,-0.868632024926029,-0.47991609454981093
-0.5278327920561526,0.24261707133047078,0.45742701989159984,-0.12254253298369037,-0.8696540278401015,-0.4782104133866485
-0.5280222962910797,0.24127992601289128,0.4566861274498869,-0.12176129059319371,-0.8711159049649861,-0.4757428593579866
-0.5282082030321752,0.23995167127394326,0.4559576974608187,-0.12085154534506795,-0.8729819067801564,-0.47254364287565165
-0.5283904141226557,0.23863188022543075,0.4552425734994023,-0.11988099301190515,-0.8751811188434596,-0.46870732524080466
-0.5285687521669072,0.23732053794047597,0.4545412260746589,-0.1189045535956188,-0.8776288933339456,-0.4643589481421249
-0.5287432992254881,0.23601795930947253,0.4538544613022281,-0.11802464673055879,-0.8802659711331966,-0.45956719076654823
-0.5289141144875033,0.23472471514929294,0.45318269011767964,-0.11731632136221136,-0.8830260528023051,-0.4544247691471265
-0.5290815081220637,0.23344158784133182,0.45252641907519003,-0.11687038421577364,-0.885869324833403,-0.44897310900817683
-0.5292456945413618,0.23216965912233017,0.451885879208564,-0.11676001609159063,-0.8887654459739901,-0.44324156019595695
-0.5294072038084312,0.23090977104550797,0.4512615968152149,-0.11705390463028238,-0.8917000622295883,-0.43722921040405466
-0.5295667164671659,0.22966284662880643,0.4506542275937483,-0.11784748607714293,-0.8946878792873614,-0.43086606814830686
-0.5297251045653322,0.22842966411603532,0.4500645649927766,-0.11919949141680145,-0.8977241621741381,-0.4241259363617341
-0.5298831536239432,0.2272107652867122,0.4494931356648916,-0.1211952761713063,-0.9008027840396071,-0.41697248026728795
-0.530041714102337,0.22600671114646134,0.4489406240636018,-0.12387368506783802,-0.9038985673235073,-0.4094175010160473
-0.5302015797552264,0.22481786975457027,0.4484073147973819,-0.12729551744359946,-0.9069842937441082,-0.40146648943625096
-0.5303638102577641,0.2236445147251957,0.4478936210017055,-0.13150034071206562,-0.9100379687608345,-0.39311392217303237
-0.5305292609083142,0.2224866256003464,0.44739948649571853,-0.1364605597363595,-0.9130134335857925,-0.3844281281700406
-0.5306989408290925,0.22134424257396582,0.4469252801932726,-0.14217325765395325,-0.9158752798069517,-0.37544538437248176
-0.5308738264861498,0.22021677658702718,0.4464709328156037,-0.14857037185994104,-0.9185679516009742,-0.36627825883744336
-0.5310547573685612,0.21910373056640814,0.44603600824812645,-0.1555595096692243,-0.9210475246729397,-0.3570331864761611
-0.5312424409786128,0.21800457319599686,0.4456197517734599,-0.16303596154723535,-0.9232672013632564,-0.3478461587098939
-0.5314373568838028,0.21691882082728406,0.4452212213137255,-0.1708938606750676,-0.9251800731199068,-0.33887626161390294
-0.5316396856685518,0.2158464301563017,0.4448393389625384,-0.17902222356050498,-0.9267558506429374,-0.33026449517097345
-0.53184964215071,0.2147873319802197,0.4444731888141707,-0.18727981237194097,-0.9279752784323257,-0.3221616899887045
