-0.6836021308063114,0.07215663118024623,0.35820099278043466,-0.23017488147973336,0.23114111715007724,-0.9453006441859674
-0.6836122861494788,0.07216582632349332,0.358161275461319,-0.21853629927651572,0.184947586036754,-0.9581420960993743
-0.6836203105305229,0.07217247639875729,0.35812625483908217,-0.20352620592823048,0.1310457233030907,-0.9702598115476232
-0.6836261433836383,0.07217654731248854,0.3580962783530565,-0.18531616998546446,0.06428120261988386,-0.980574242029465
-0.6836299282724052,0.07217809498389907,0.35807145993846423,-0.16420456658979937,-0.021016479098861954,-0.9862023970348801
-0.6836319957085484,0.07217732969701136,0.35805174066967604,-0.14069286477297194,-0.1292801658138047,-0.9815763630656197
-0.6836327471302599,0.07217448242235223,0.358036923182196,-0.1157137093810172,-0.25910779187363364,-0.9588918028910536
-0.7297836604063789,0.20942036757760638,0.6090958769657673,0.44773025818800605,0.571800317101138,0.68744600752782
-0.7297638304995974,0.20944324771798775,0.6091292408245716,0.4469283557344191,0.6192299960024762,0.6456076648331414
-0.729740717392235,0.20947556176827245,0.6091645511754398,0.4471059187987862,0.6520548246410874,0.612307768232099
-0.7297131209531605,0.20951937149789904,0.6092028564315863,0.449016862206926,0.6714048126099879,0.5895756398105281
-0.729679355907251,0.20957666776312714,0.6092460197704095,0.45268966321597043,0.6794859382371646,0.5773828266889927
-0.7296374589562762,0.20964902766256469,0.6092964589312064,0.457631965201546,0.6784125665020692,0.5747428764568087
-0.729584937150594,0.20973797288296622,0.6093577796808978,0.4631656785140087,0.6705227744699902,0.5795487582280929
-0.7295188340578673,0.20984513479057915,0.6094345896746931,0.4686612193612717,0.6579270843892131,0.5894816478007736
-0.7294362763357994,0.209971909113807,0.6095315060584432,0.47366140164139986,0.6418269547230214,0.6030779690770315
-0.7293344910915145,0.210118902008613,0.6096536762939988,0.47780247175147594,0.6236038695386185,0.6187269283655283
-0.7292109277919283,0.21028625564030207,0.6098065205288477,0.4808925692903652,0.6046532060919679,0.6349305766491447
-0.7290641073396759,0.21047380002182775,0.6099940850217245,0.4829271379796321,0.5858028920755426,0.6508581650703412
-0.7288938590883375,0.21068055057203924,0.6102185605918307,0.48398028237313473,0.5677709502104107,0.6658822976857006
-0.7287007573825631,0.21090591478864845,0.610480593888612,0.4842748678552727,0.5505825322812071,0.6799534745190818
-0.7284858466907422,0.21114902512003533,0.61077983228884,0.4840518291683892,0.5342400484208728,0.6930233743114297
-0.7282505588182445,0.21140837618231423,0.6111151724166279,0.48351219335438994,0.5185080266514273,0.7052413666083901
-0.7279961067052835,0.21168267807497815,0.6114856722580722,0.4828463310632801,0.5028762075059487,0.7169204561896412
-0.7277235071173136,0.21196960897000564,0.6118909616464925,0.4822028423190063,0.48717429459147915,0.7281082512571646
-0.7274336099007987,0.21226663526866918,0.6123305643811081,0.4817409765490502,0.4713923053750603,0.738725203270305
-0.7271275020558791,0.212571077165629,0.6128029308062597,0.48158273699019455,0.45534536574057843,0.7488248562458459
-0.7268054814239674,0.21288092502357644,0.61330773522118,0.48184596697910476,0.43885164157754225,0.7584416264885967
-0.7264674367962246,0.21319430094820344,0.6138449683913754,0.48263949555614005,0.4218419135046108,0.7675340496291243
-0.7261137171923846,0.21350883503335935,0.6144134216176507,0.48405349807423803,0.404172569909687,0.7761035657273407
-0.7257444322571323,0.21382132953844235,0.615012944210837,0.4861839674900545,0.3858427280647189,0.7840602903828284
-0.7253596125004137,0.21412929862955637,0.615642835730593,0.489108829114041,0.36689811548238316,0.7913016656990983
-0.7249601162848395,0.21443037527040562,0.616300262204492,0.4929132153395454,0.3473980756603039,0.7977162021490779
-0.724546757693477,0.21472178303448616,0.6169819216004235,0.4976586304487063,0.32750842554053256,0.8031650631967749
-0.7241197260958073,0.2150026897360866,0.6176845920629697,0.5034323843579944,0.30725154596443927,0.807559485042487
-0.7236787792058154,0.2152713370709997,0.6184056560507911,0.5102880370022764,0.28662423400522186,0.810834550184736
-0.7232235650822654,0.21552592727838243,0.6191422613251465,0.5182515721954145,0.26565433708564656,0.8129225554162997
-0.7227529442785151,0.2157648112941268,0.6198929512490512,0.5273258836738726,0.244595601225796,0.8136955230727037
-0.7222656520960592,0.21598528898763367,0.6206569328347853,0.5375070236818165,0.22386441694204642,0.8130011822377091
-0.7217601532644832,0.21618612515453325,0.6214333950743003,0.5488400650059875,0.2041265246862334,0.8106213326601663
-0.7212354639090964,0.21636722018093424,0.6222197529703457,0.5613667309710332,0.1860657648142935,0.8063788963774832
-0.7206899666534973,0.21653001460064167,0.6230143984178194,0.5750864482039784,0.170283763828411,0.8001743665405453
-0.7201224137350805,0.21667645480880343,0.6238147430953562,0.5899952178332977,0.15728942314270863,0.7919379270506455
-0.7195321206168365,0.2168095222276657,0.6246168715898437,0.6060574001267738,0.14737404933571782,0.7816491011534326
-0.7189180151869609,0.21693316152560568,0.6254177444740416,0.623185128094976,0.14062399988828203,0.769327749906806
-0.7182790320115833,0.21705238014582698,0.6262136975344148,0.641338701387695,0.13715191143329752,0.7549000088041713
-0.7176146439691968,0.21717144334196042,0.6270004689144819,0.660466742982942,0.1370549023661039,0.7382409059046527
-0.716924045817644,0.2172942083563037,0.6277742106927586,0.6804127850654007,0.14042205183063206,0.7192496710317079
-0.6033626669029427,0.25698307873682913,0.6429998969008746,0.9171494172894726,0.3770450739540293,0.1291276832154177
-0.6006425822313487,0.2581038231309414,0.6433867355619383,0.9183045106445862,0.3739776416804023,0.1298366252371485
-0.5979167137316042,0.25921620960902114,0.6437755103592078,0.9196427532964123,0.3704772259597896,0.13039873985025008
-0.5951865584756306,0.26031642444202485,0.6441673116856546,0.921140926183908,0.3665877562030665,0.13081594364240684
-0.5924536225790947,0.26140147708568573,0.6445614623787554,0.9227732860253939,0.36242933015846446,0.13089859907112592
-0.5897192173953073,0.2624721581756714,0.6449552698734491,0.9245129299769875,0.35808009530976853,0.13059283153493917
-0.5869843462115302,0.26352699105151467,0.6453469953391258,0.926356110030403,0.3535182203262132,0.12995855226466224
-0.5842495748561539,0.2645634025624819,0.6457369167357263,0.9282666540231495,0.3488411997144435,0.1289606002252392
-0.5815155300186395,0.2655820432548984,0.6461224791991775,0.9301894526926178,0.34425927543406604,0.1274093143259939
-0.5787825097940689,0.2665835888853947,0.6465006965912603,0.9321098501285002,0.33978016798323163,0.12538207502953397
-0.5760501548583425,0.267566853987658,0.6468719766345017,0.934000712961404,0.3354360268697778,0.12298512131720118
-0.573318243992122,0.268533337054332,0.6472351971502364,0.9358032248903343,0.3314245460078909,0.12012532867099202
-0.5705868678901093,0.26948535170099497,0.6475870577434533,0.9374703415061036,0.32790347632085404,0.11674189056687595
-0.5678555829475466,0.2704242583811145,0.6479275499225607,0.9389670824129389,0.32496138829776705,0.11287565840570288
-0.565124200025419,0.2713511816901498,0.6482564948107346,0.94026258377649,0.32265673897493574,0.10862275242332659
-0.5623929266473879,0.2722700818231625,0.6485710740862045,0.9413098693769166,0.3211429917515448,0.10393704182089959
-0.5596610757176,0.2731852417025218,0.6488699832269265,0.9420872750505163,0.3204680571739566,0.09885236729103879
-0.5569279968207251,0.2740976737098877,0.6491542844885951,0.9425903371916732,0.3206128899538817,0.09343891602703784
-0.5541927402881951,0.27501155556454693,0.6494235071987362,0.9427967960457256,0.3216480252287066,0.0876170601674573
-0.551454554554453,0.27593298593514004,0.6496745721977448,0.9427140845896568,0.3235167515639121,0.08140679439591796
-0.5487127756675146,0.27686419891446734,0.6499069093672343,0.9423664624901202,0.32609931523819624,0.07486445735485336
-0.5459659816203495,0.2778070720700704,0.6501218932438646,0.9417717865530667,0.3293192680290802,0.06793174337109217
-0.5432131328446994,0.2787646146457148,0.6503185678642298,0.9409176168857003,0.3332009755617747,0.06042473101980668
-0.5404536209300989,0.27974033083282956,0.6504934298019396,0.9398298308468509,0.33760828769287443,0.05235010154207054
-0.5376864655863446,0.28073631066016813,0.6506453656262832,0.9385815143725134,0.34226411269760487,0.04381801042403596
-0.5349112404625611,0.2817526161871883,0.6507732853691164,0.9371664239387228,0.34714964341330334,0.034730662532156065
-0.5321273854515641,0.28279021996524234,0.6508753247310635,0.9356105885264774,0.3521531029201219,0.024920247608495805
-0.5293351757006175,0.283848434686949,0.650949119173595,0.9339146998878499,0.3572056277166301,0.014403918250093694
-0.526535051326054,0.28492775514806856,0.6509910012464286,0.9320922240849355,0.36220767680833316,0.003112018879859663
-0.5237278939593067,0.28602799329369477,0.6509972733932097,0.9301283596364472,0.36712569283648516,-0.008942050063740839
-0.520914140527263,0.2871481388277556,0.65096573967521,0.9280056387141082,0.37193196945236695,-0.021728888929344277
-0.5180945226489885,0.28828765086183583,0.6508938360965963,0.9257499323393462,0.37649541720447016,-0.035188969830442236
-0.515270306864895,0.28944696154851335,0.6507785399562536,0.9233396143829364,0.38080031898806815,-0.04934646461253265
-0.5124429325719899,0.29062545490287384,0.6506163002492604,0.9207529926716186,0.3848267228761334,-0.06420529453771
-0.5096140799147798,0.291819528102074,0.6504068628668236,0.9179875426051127,0.38851737077379594,-0.07970648799717156
-0.5067849611169347,0.29302738630617076,0.6501496231537225,0.9150092567093991,0.391882021017889,-0.09584644875553676
-0.5039574437769799,0.29424816331798886,0.6498411556196149,0.9117706586180767,0.39494233210187324,-0.11267129358045179
-0.5011334581413074,0.29548166697520295,0.6494765469620365,0.9082265785765143,0.3977367348846633,-0.13011522466831377
-0.49831370334511454,0.2967279211251109,0.6490547186688473,0.9044205151057483,0.4001299463460512,-0.14805255111938906
-0.49549965100173593,0.29798301207024724,0.6485750546170774,0.9003584345097468,0.40208723037577054,-0.16637472336836456
-0.4926916643730438,0.2992467663470303,0.6480362972675717,0.8960016981831087,0.40363880218588705,-0.1850855862106179
-0.48989101667144636,0.30051733588359364,0.6474359450994911,0.8913209418127769,0.40477416568783575,-0.20421766201213057
-0.48709855978342065,0.3017940650954928,0.6467721047226744,0.8862813916874783,0.40554682152707644,-0.22368967409738014
-0.4843151861205727,0.30307528148118734,0.6460423820608083,0.8808945735727344,0.40596952984183665,-0.24333822365199576
-0.4815412153188674,0.3043606873606213,0.6452470298627317,0.8751624385462695,0.40603733159908845,-0.2631052859705384
-0.47877695857973573,0.30565045208200825,0.6443851765960993,0.8690602257775161,0.40581361370971375,-0.2829304418039813
-0.4760233309525844,0.3069434700909126,0.6434570021320909,0.8626026051805624,0.40527592657484723,-0.3027675162143487
-0.47328125030863105,0.30823807453460905,0.6424628377372665,0.8558018266351971,0.4043887896209684,-0.32260337933249883
-0.4705520985362519,0.30953207795919846,0.6414028798317759,0.8486744270204023,0.40318828465332585,-0.34233159953457465
-0.46783694211596094,0.3108256684297349,0.6402762406105005,0.8412051712432589,0.40171175541043813,-0.3619413287242337
-0.4651369475308714,0.31211923091115823,0.6390816734493481,0.8333733402165832,0.39994359201140156,-0.381489185987326
-0.46245324626035483,0.3134127637423393,0.637817613125284,0.8252202770160847,0.39785940697853084,-0.40089822484040555
-0.4597864278931335,0.3147067720254585,0.6364851188559508,0.8168460058926866,0.3953793436642289,-0.420044970521977
-0.45713810652272163,0.315997800295009,0.6350847796211738,0.8083253244525931,0.39239351455611277,-0.4389048867156891
-0.4545088170153936,0.31728490246434216,0.633617530399528,0.7996836163766979,0.38890033189940576,-0.4574523423781083
-0.4519001059237453,0.31856522625277617,0.6320844413398261,0.7909334720018628,0.38481422757316475,-0.475754404209091
-0.4493134609225247,0.3198355817862918,0.6304865521351799,0.7820766424290111,0.38010986686852016,-0.49383460234795273
-0.44675000768859446,0.3210931952216307,0.6288251631025834,0.7731196559947071,0.3747337879399658,-0.5117231533659492
-0.4442110550786008,0.3223353062195675,0.6271036751581729,0.76407381204293,0.36866421002111655,-0.5294127973516425
-0.44169817531928607,0.3235576236269786,0.6253233831505969,0.754894845813909,0.361869132903169,-0.5469776068684195
-0.4392132789766343,0.3247566499551723,0.623486121779113,0.7455344895615086,0.35430147525234507,-0.564489848897456
-0.43675876052982837,0.32592861573174825,0.6215933805756764,0.7359040724023209,0.34590191772671663,-0.582062762539109
-0.4343378960966412,0.327069133310943,0.6196448395432468,0.7259256813228524,0.3366855098015936,-0.599728915999215
-0.4319535159199989,0.32817623605899593,0.6176411760644609,0.7155321730280961,0.32665663205362655,-0.617502351491128
-0.42960868278564796,0.3292477058562524,0.6155831905740528,0.7046639451215717,0.3157370895675084,-0.6354201875272313
-0.42730687460974137,0.3302805590737121,0.6134698902645825,0.693306155721514,0.30385348752075897,-0.6534520889553629
-0.425051570231429,0.3312714394843581,0.6113024656222135,0.6814814466729627,0.29094624607748565,-0.6715156883751452
-0.42284626902346495,0.3322156331564404,0.6090832208440307,0.6691849026223247,0.2768379265096083,-0.6896030224326242
-0.4206937401527565,0.33310887291591207,0.6068141180223594,0.6564493351609257,0.26149536346332464,-0.7075976577504778
-0.4185967598483958,0.3339466996413546,0.6044988748803537,0.6432595771476421,0.24478162433852993,-0.725464728842159
-0.416557713592139,0.33472445327691713,0.6021413858493265,0.6295736261417488,0.22653658171855592,-0.7431811531585024
-0.4145786408541254,0.33543691721768043,0.599745037860901,0.615382108346437,0.20672815142958395,-0.7606367938336938
-0.41266139965048315,0.33607851411122147,0.5973143297872192,0.6006238907367858,0.18528288244293414,-0.7777668001077466
-0.4108074676979163,0.3366438468391726,0.5948528926278478,0.585199701628928,0.16212720216025955,-0.7945162550464905
-0.4090178882446103,0.337128388947442,0.5923635291940645,0.5690193489467945,0.13732686287809406,-0.8107763645150415
-0.40729386637137377,0.3375281054551377,0.5898491177197016,0.5519295167080808,0.11086887886628137,-0.8264876891311317
-0.4056372413821189,0.3378383022897624,0.5873101369720366,0.5338107810265935,0.08289523556834362,-0.8415310035761291
-0.40404867265416694,0.3380572010158468,0.584747104672205,0.5146082556193297,0.05362755349825606,-0.8557467082929517
-0.40252943786643713,0.3381828706721124,0.5821600938117049,0.4942622844254234,0.023248683166322583,-0.8690018946616824
-0.40108096788347564,0.3382127316714746,0.5795470549320219,0.4727854334906198,-0.007967672161313768,-0.8811415607491321
-0.39970448553304627,0.3381452278500917,0.5769081869119328,0.4502859332845312,-0.039703572851929506,-0.8920012357552372
-0.39840075394415697,0.3379803302553328,0.5742441687015498,0.4269000382850946,-0.07167321776079096,-0.9014539961462255
-0.3971705475126855,0.3377171579091983,0.5715540758411826,0.40285015051188167,-0.10349196439591271,-0.9093960465814822
-0.39601401650992957,0.33735740826874594,0.5688401438893487,0.37837630629306784,-0.13485549263552837,-0.915775827886958
-0.3949314663523514,0.33690209242684843,0.5661045178948905,0.35372146170577506,-0.16547841765205917,-0.9205965570325041
-0.3939225762523036,0.3363521797668054,0.563348506660182,0.3291437983965764,-0.19512936735593303,-0.9238987444370443
-0.39298628655687673,0.3357111368724158,0.5605762450758955,0.3048984792154312,-0.22365292158090894,-0.9257517421212023
-0.39212125996250524,0.33498208073279134,0.5577909425398808,0.2812410460314894,-0.25087079194946654,-0.9262652534634779
-0.3913250928299914,0.33416880281561046,0.5549954508677348,0.2583775169655455,-0.2766874736752347,-0.9255728499896351
-0.3905950447153319,0.3332766069120817,0.5521942790554066,0.23644047268802587,-0.3011022051571779,-0.9238145728037351
-0.3899284419761371,0.33230876332075765,0.5493892241312499,0.21554146908059837,-0.3241218229756627,-0.9211334968274201
-0.38932157865414785,0.3312701755986992,0.5465828648458051,0.1957991091428456,-0.3457293475569529,-0.9176785532509255
-0.38877165516450213,0.330164700998013,0.5437783422235993,0.17728641399005052,-0.3659876117764587,-0.9135768141982985
-0.3882751662724948,0.32899478360677037,0.5409763468730295,0.1600697305327615,-0.38493254440983815,-0.908957984519272
-0.38782840960844955,0.32776407048314504,0.5381795595502268,0.14420611209099343,-0.4025887857020671,-0.9039506993539719
-0.38742756818922625,0.3264763750191556,0.5353900759208883,0.12973372745206296,-0.41897163051386765,-0.8986834441481301
-0.3870690856248733,0.3251335196529376,0.5326082325507697,0.11669496849305144,-0.4340734573973469,-0.8932874777536733
-0.38674852541469257,0.323739925635368,0.5298362745271987,0.10511668924159516,-0.44786608040777887,-0.8879000257140771
-0.38646175635053287,0.32229911315356663,0.5270755510851401,0.09498262378149595,-0.4603372230449923,-0.8826482551157102
-0.3862038240828324,0.3208165251256624,0.5243267369816162,0.08625410507702178,-0.4714781169088956,-0.8776494827853565
-0.38597017017612417,0.31929821991098395,0.5215920743711941,0.07888677452089508,-0.4812310683238139,-0.873036961236814
-0.3857560256208719,0.31775006429369146,0.51887235891299,0.07276056652813191,-0.48960366578971626,-0.8689039937782408
-0.38555653516453886,0.31618032414657427,0.5161695617737909,0.06774219344057468,-0.4966235753675218,-0.8653184498304883
-0.38536753431343296,0.31459738298810247,0.5134858777259634,0.06362278224633043,-0.5023698379714645,-0.8623089280969789
-0.3851858051434628,0.3130078682030951,0.5108219015935682,0.06012039360794024,-0.5069737205925565,-0.8598623057798074
-0.3850093207706308,0.31141937942022324,0.508179847055382,0.05694845540489311,-0.5106070610078212,-0.8579261638835547
-0.3848378947239394,0.3098382876594642,0.5055622607006669,0.053790486908368226,-0.513496346240204,-0.8564041603799699
-0.38467196064645526,0.30826866936588326,0.5029700277197016,0.05035157284752786,-0.515865269386869,-0.8551887177414078
-0.3845135379969516,0.30671399469005256,0.5004059333097186,0.046333155865245786,-0.517934500314237,-0.8541645579464231
-0.3843659950963095,0.30517578798904355,0.4978720440512973,0.04147131054776678,-0.5199204900360067,-0.8532073689567907
-0.384233563685396,0.3036527618809006,0.495368867342918,0.035564110711099266,-0.5220083639789569,-0.8521986047661317
-0.3841203354013428,0.3021437160171653,0.4928976409587474,0.028484191912275234,-0.5242988155494296,-0.8510578140317906
-0.38403084858752407,0.3006459841336716,0.49045856667057064,0.02014120005450955,-0.5268747506448007,-0.8497042598418247
-0.3839690389694053,0.2991565270764479,0.48805043857859337,0.01051668663569556,-0.5297466695925445,-0.8480907176462987
-0.3839386732528044,0.2976711774004738,0.4856718810431467,-0.0003897618999058777,-0.5329120664997966,-0.846170536868649
-0.3839424304836762,0.2961878052914714,0.48332112008374234,-0.012517859538877163,-0.5363079568163188,-0.843929546021509
-0.3839826706173117,0.29470520336848594,0.48099706080186333,-0.02581009884549922,-0.5398328621347959,-0.8413764435476786
-0.3840610042147765,0.293222055022186,0.4786980567445197,-0.04023818313742175,-0.5433887771192951,-0.8385162643136962
-0.38417898062735867,0.2917386485930855,0.4764233271348051,-0.05580177991528457,-0.5469113717959362,-0.8353287453204118
-0.38433860952802157,0.2902564462276028,0.47417274728437464,-0.07253800707798427,-0.5503607505254956,-0.8317699692884851
-0.3845420811170758,0.288777605721956,0.4719478058351866,-0.09050247178247872,-0.5537647941153774,-0.827740210089866
-0.38479135259745284,0.28730354874147035,0.46974990723335797,-0.10979087277319213,-0.5571913010971297,-0.8230940518782702
-0.3850891042295363,0.2858358230070006,0.4675825846089748,-0.13054651554798788,-0.560706960377823,-0.8176584322699435
-0.38543870142056363,0.2843756347026478,0.465450236039865,-0.15288680717700123,-0.5643619742039825,-0.8112466864424198
-0.3858438897549941,0.28292270963451993,0.46335710161645244,-0.17685509766449975,-0.5681642493897113,-0.8036862946109672
-0.38630801929464903,0.28147667252520236,0.4613071923883125,-0.20248368677947956,-0.5721049035605362,-0.7947932661454672
-0.3868345902188748,0.2800365336607221,0.45930347000734106,-0.22976024702840284,-0.5761578395535736,-0.7843802475881235
-0.3874272015302337,0.27860038092885997,0.4573477885513072,-0.25855570509893344,-0.580271492519682,-0.7722913584456153
-0.38808944968925563,0.27716585613060896,0.45544182072239997,-0.28866518099859617,-0.584363826889889,-0.758413693904357
-0.38882452997467165,0.27573120635503345,0.4535874910518353,-0.31980532953470286,-0.5882695799737004,-0.7427405014396119
-0.3896351683194943,0.27429409787842707,0.45178615773137254,-0.3516174970779953,-0.5918415363786785,-0.7253197443648776
-0.3905237109080652,0.27285266241864026,0.45003807562804543,-0.38365322937085505,-0.594944192797251,-0.7062942779395439
-0.39149234840646224,0.27140580973168293,0.4483426180996905,-0.4154723308868713,-0.5974680101870299,-0.6858678583157118
-0.3925427917524578,0.26995182311309207,0.4466982090185096,-0.44661362368263147,-0.5993466281313568,-0.6643191179611212
-0.3936757218027628,0.26849025899394663,0.4451044341127359,-0.4766007640199193,-0.6006157214716855,-0.6419598638985743
-0.39489063053116447,0.2670196834934163,0.44355958711234755,-0.5049852939882788,-0.6013886609757014,-0.6191296562961789
-0.3961868687885763,0.2655383994201045,0.4420621999993727,-0.5314040002895396,-0.6018463279939666,-0.5961466144804092
-0.39756321873751715,0.2640435531052351,0.4406106286041568,-0.5555715967311016,-0.6021268991133519,-0.5733963709946144
-0.3990175405754353,0.26253156041159986,0.43920182184187845,-0.5772657173568746,-0.6023923572153543,-0.5512601378051762
-0.4005464219318613,0.2609987606490556,0.4378315757340993,-0.5963677267187891,-0.6027580593225769,-0.5301209828425437
-0.4021460915254727,0.25944141911568586,0.43649549610650207,-0.6128899488683068,-0.6033107573578552,-0.5102764355057908
-0.4038126676532988,0.2578558352158282,0.4351887369668561,-0.626936482457685,-0.6041453250638305,-0.49189335548175855
-0.4055418129661429,0.2562379101577996,0.43390647717732006,-0.6387284700332804,-0.6052857075648986,-0.4750317397675705
-0.4073286568532724,0.2545849423797658,0.4326454257568859,-0.6485273204749372,-0.6066982574964586,-0.45970592659694853
-0.4091680596176489,0.2528953205238299,0.43140230498548116,-0.6566334540874518,-0.6082748992870329,-0.44590823480906083
-0.41105541724064687,0.2511691797796314,0.4301733759576875,-0.6633622209111671,-0.6099075440907542,-0.433547404015972
-0.4129862756068774,0.24940765916922789,0.4289556634930546,-0.669026639418409,-0.611475547856739,-0.422493798915216
-0.4149564135701029,0.2476128149357534,0.4277478066909733,-0.6739468770710599,-0.6128350594609264,-0.41258792612204304
-0.41696188883917323,0.24578920811618146,0.42655010564244694,-0.6784083177242846,-0.6138489050607662,-0.403672734028699
-0.4189987758148253,0.24394176797397363,0.4253621534056706,-0.6826458307183336,-0.6144377902814109,-0.3955513515044199
-0.4210643534250489,0.2420757553831238,0.424184705091653,-0.6868537265853479,-0.6145423618569521,-0.3880330446741604
-0.4231562340519933,0.24019541319360818,0.4230192127454278,-0.6911918880606784,-0.6140979859773634,-0.380969076826008
-0.42527250805738737,0.23830576334931736,0.42186677533346334,-0.6957795381914585,-0.6130388206980758,-0.37426493096627844
-0.42741150962956287,0.23641166041068976,0.4207295499443398,-0.7006848254306134,-0.6112909699828792,-0.36791863968635974
-0.429571570490425,0.23451922693386032,0.41960887309662576,-0.7059304453004951,-0.6088584704152987,-0.36187507430242755
-0.4317514128302021,0.23263409649601982,0.4185052281790729,-0.7114967185246066,-0.6057829044395932,-0.3560891632968454
-0.4339500965039628,0.2307592201954446,0.4174192523262685,-0.7173720967890296,-0.6020622401324601,-0.3505685863781794
-0.4361661017374082,0.22889928763277415,0.41635242395055155,-0.7235250035111007,-0.597713830479492,-0.34532556544193865
-0.4383978344554964,0.22705842859290043,0.41530478501045803,-0.7299008032348239,-0.5927657438434024,-0.34040210099665497
-0.44064407373053677,0.22524087193565256,0.41427559557257065,-0.7364227819650137,-0.5872689418074056,-0.3358521641903175
-0.44290332227060114,0.22345004821212996,0.41326436231961644,-0.7429838358428282,-0.5813457025633866,-0.33168086135223407
-0.4451740372532077,0.22168798275097187,0.41227081001787985,-0.7494904774361055,-0.5750812958209351,-0.32794134754482024
-0.4474541503663469,0.21995710295797724,0.41129393643343987,-0.755865939596083,-0.5685488764854123,-0.32468270111865505
-0.4497408743416601,0.2182592235232422,0.4103312267808084,-0.7620237473734318,-0.5618752327866828,-0.32189444111364096
-0.4520322651016816,0.2165943959973318,0.40938141182905463,-0.7679067151497643,-0.5551779625545781,-0.3195257528301065
-0.4543262773384051,0.2149608489558864,0.4084433114704171,-0.7734903380758303,-0.5485231988295992,-0.3175452680313183
-0.45662089887094215,0.21335797450229027,0.4075160130333717,-0.7787750135916474,-0.5419368257703256,-0.31593346622242013
-0.45891392554305094,0.2117855006604454,0.40659889913818337,-0.783779031879982,-0.5354564757919946,-0.314605771907788
-0.46120303604490065,0.21024362490330123,0.40568980100360924,-0.7885682108350692,-0.529052007686249,-0.3134711310847092
-0.46348680848294166,0.20873066848243654,0.40478774674846374,-0.7932238354195063,-0.5226926370405683,-0.3123913476809893
-0.4657646229187324,0.2072439862077809,0.4038932153088008,-0.797845213608921,-0.516310036108057,-0.31123457670289784
-0.46803559528153105,0.2057846427621314,0.4030071136873424,-0.8025694850947009,-0.5097631376343812,-0.3098770160950595
-0.4702995521516521,0.20435371635388455,0.40212986879329404,-0.8075089759237102,-0.5029501445649789,-0.3081726884146414
-0.4725567972617179,0.20295321618265116,0.40126346451969874,-0.8127604540436677,-0.4957615925531915,-0.3060079863203809
-0.47480805857363184,0.20158486647992316,0.40041050080656426,-0.8183876768592071,-0.4881061296109471,-0.30330515426087196
-0.4770543722950088,0.20025029976921704,0.3995738607286325,-0.824396614922061,-0.4799546817691579,-0.3000228737161779
-0.4792959449927134,0.19895287706596088,0.39875521282242493,-0.8307606889301842,-0.4713286459816597,-0.29611819465433264
-0.4815330490204623,0.19769475082040405,0.39795612530056124,-0.8374367048752673,-0.46226747616600233,-0.2915622503116078
-0.48376677000292856,0.196475564557162,0.3971794344581692,-0.8443925066009379,-0.45277970792839556,-0.2863421570158015
-0.4859976414332666,0.19529563324225588,0.39642759695727864,-0.8515297952701796,-0.4429334112826918,-0.28054768032654215
-0.48822520413313836,0.19415709427080224,0.39570180432355984,-0.8587426803099762,-0.4328465487754724,-0.27423507111090095
-0.4904488425289585,0.19305983827029197,0.39500175380472113,-0.865940774882736,-0.42262670467705254,-0.26745699259750516
-0.4926681229462068,0.19200148349283863,0.39432700013440164,-0.8730573129607999,-0.41232905957266464,-0.2602992026833538
-0.4948827676153969,0.19097988629089077,0.39367836982436716,-0.8800163576070386,-0.4020690880812866,-0.25280755280157946
-0.4970923714395058,0.18999376872921372,0.3930565099285164,-0.8867500542739488,-0.39194258436328466,-0.2450619346364884
-0.49929576194609254,0.18904263955438544,0.3924607209978534,-0.8932596677171902,-0.3819196536196959,-0.23711715291978874
-0.5014919551289209,0.18812538270428014,0.3918904400022995,-0.8995401771808509,-0.37200813553860723,-0.22899217613388614
-0.5036803484970948,0.18724099151279347,0.3913467191272395,-0.9055873181769664,-0.3622028118866268,-0.22072773323366227
-0.5058606992147463,0.18638852767559094,0.3908299653442288,-0.9113745090783991,-0.35251584207797404,-0.2124360734107181
-0.5080324093072686,0.1855683660256563,0.39033959055543804,-0.91686893121329,-0.34300317432272437,-0.20420623247181724
-0.5101944713686768,0.18478084001952516,0.3898743618620674,-0.9220273667038091,-0.3337503432275044,-0.1961536220536403
-0.5123466901165321,0.1840235098427672,0.38943378255485467,-0.9268169940226827,-0.32485246568684467,-0.18836436798910722
-0.5144891382264901,0.18329402851895654,0.3890174803979968,-0.9312039723834536,-0.3164162069530589,-0.1809418298645047
-0.5166208629031583,0.18259206660238908,0.38862374803828165,-0.9351863315267671,-0.3084599747696829,-0.17400853223504362
-0.5187404199364689,0.18191692839035967,0.3882495960277388,-0.9387345670175228,-0.301090583942027,-0.16769577498515983
-0.5208471090211257,0.18126462722440154,0.38789222249191735,-0.9418231526608749,-0.29445258023524273,-0.16207043871335136
-0.5229403885142493,0.18063148214300223,0.387549503994015,-0.944471704869491,-0.2886094912215525,-0.15709156653924475
-0.5250190205640567,0.18001599747214958,0.3872196671434604,-0.9467271681259681,-0.2835312828554339,-0.15270127954453047
-0.527081595600074,0.1794163790127031,0.3869005005322549,-0.9486176800003578,-0.2792236053329151,-0.14885790343689217
-0.5291270254705251,0.17882965770826614,0.3865897950600317,-0.9501753177055966,-0.2756559450860061,-0.14553578790733696
-0.53115500349184,0.1782534774790344,0.3862863612138996,-0.9514642567671165,-0.27274765376750026,-0.14256396970806548
-0.5331653169880277,0.17768656975528446,0.38598994569493283,-0.9525503383877452,-0.2704259279895112,-0.1397056559642592
-0.5351579714093517,0.17712843907209147,0.3857003542793121,-0.9534771378529632,-0.2686191431868379,-0.13683970003361878
-0.5371332587282563,0.17657868877489963,0.3854177800917209,-0.9542824855286028,-0.2672276697425773,-0.13391904396800344
-0.5390919866796893,0.17603607925751794,0.3851433095940026,-0.954978429278331,-0.26623547880192217,-0.13090022704412324
-0.5410348152244885,0.17549931487065906,0.3848781046939646,-0.955555404926735,-0.265711827888568,-0.12771488807269024
-0.5429619154249937,0.1749688112611892,0.3846228478837321,-0.9560010928404543,-0.26570068847908207,-0.1243585728029989
-0.5448730974316062,0.17444427642403149,0.38437748658107646,-0.9562969442455034,-0.2662355285140674,-0.12089167789201993
-0.5467687459376277,0.1739242764338955,0.38414219411897854,-0.9564035955819395,-0.26741237018798864,-0.11740011340871884
-0.5486492989628794,0.1734063313434759,0.3839170685253457,-0.9562660686422835,-0.26938801393096673,-0.11395307768446156
-0.5505143743997817,0.1728893038269791,0.3837012967830073,-0.9558465035403303,-0.27227408478465,-0.11056348594543632
-0.5523632737903154,0.1723719383140038,0.3834942849022119,-0.9550984458157656,-0.27618354949855933,-0.10728283081036553
-0.5541961960881513,0.17185150177892838,0.3832953337413528,-0.9539509974169843,-0.28127932006293266,-0.10420863031474513
-0.5560138755817885,0.1713245072796217,0.3831032372268258,-0.9523351895607699,-0.2877252198989077,-0.10135030615828355
-0.5578164554715735,0.1707883734680643,0.3829159615805325,-0.950204314248057,-0.29563089203473364,-0.09856032091631722
-0.5596038861732091,0.17024117109241008,0.38273254895624076,-0.9474706147773483,-0.3052030103961044,-0.09565854158719458
-0.5613769189364003,0.16967918389032924,0.38255344164976923,-0.9440478186317389,-0.3165716723940662,-0.09249914796515367
-0.563136623728724,0.16909765209590924,0.38237993306391,-0.9398385971908988,-0.3298184230202543,-0.08901246579370702
-0.5648834119833271,0.1684918233996364,0.38221304085453284,-0.9347682125949276,-0.34491017885081654,-0.08511966428024699
-0.5666166941939186,0.16785864065934525,0.3820534174191586,-0.9287129317158213,-0.3618974337770601,-0.08076223058697038
-0.5683361697171395,0.16719421273529506,0.38190199592896906,-0.9215509218607806,-0.38077116391540045,-0.07587634116150363
-0.5700420904622728,0.1664924540064894,0.3817601775805612,-0.9131837004051903,-0.4014131007467623,-0.07044893088722895
-0.5717345550923743,0.16574732585860052,0.3816295664371972,-0.9035933636706863,-0.42350994497115524,-0.06448534438788216
-0.5734128240256917,0.16495484720902334,0.3815111792916513,-0.8927517306739824,-0.4467944900621219,-0.05804335473366237
-0.5750757390402299,0.1641122387279384,0.3814056676295404,-0.8806563145029696,-0.4709779028797953,-0.05122763634013085
-0.576722832826935,0.16321548263812383,0.3813140476631505,-0.867405038243097,-0.4956450344370565,-0.04409647909278915
-0.5783543951099858,0.16226065501497067,0.3812366790112766,-0.8531977880024523,-0.520290175502062,-0.036765035342781985
-0.5799701438182365,0.16124597195506002,0.38117286273865764,-0.8382892997307051,-0.54443382530747,-0.029374475622202544
-0.581569369405207,0.160172447236023,0.38112194269778604,-0.822906087123892,-0.567750129780253,-0.02203093073275344
-0.5831522673118492,0.15904147815980882,0.38108483021817746,-0.8072868420268613,-0.5899745838547197,-0.014762963650564863
-0.5847196198113003,0.15785274014845072,0.3810627125090887,-0.7916969104062859,-0.610866360796803,-0.007634873935541198
-0.5862720056381934,0.15660773430430092,0.38105617122403745,-0.7764081715096668,-0.6302299174141447,-0.0007761502277558738
-0.58780910009105,0.15531023835717875,0.38106423666301026,-0.7616454470830516,-0.6479687938657288,0.00571446531627588
-0.5893307028817546,0.1539660693389766,0.38108641656459774,-0.7475627983127102,-0.6640880328668815,0.011702443414356157
-0.5908372171676114,0.15257857470666805,0.3811219629486537,-0.7342740721065374,-0.6786375097281061,0.017108986589453513
-0.5923292950162519,0.15115030244049327,0.381169748090846,-0.7218890959164613,-0.6916619737660383,0.021905415836780354
-0.5938070020638221,0.14968619844288045,0.3812281541993429,-0.7104523543270704,-0.7032628992196744,0.02605276976179588
-0.5952701733685316,0.14819317318817757,0.381295280260969,-0.6999356771738704,-0.7135957890558566,0.02951436363713088
-0.5967188072199594,0.14667544505162183,0.38136922489835207,-0.6902937281879552,-0.7228086521954032,0.03228344987509727
-0.5981535141725022,0.1451343254933862,0.3814474724766651,-0.6815085944220819,-0.7309984084318232,0.03445812819901587
-0.5995750687932844,0.14357230453601058,0.3815279340995078,-0.6735718803852061,-0.7382380049477227,0.03613267226684989
-0.6009834565506179,0.1419936417967537,0.3816090963893489,-0.6664788166127591,-0.744584256640313,0.037420205368876
-0.6023792501949649,0.14040260633216342,0.3816905360862299,-0.6601893303006936,-0.7501135439393308,0.03846712045239744
-0.6037635555566647,0.13880045319387604,0.381772640231165,-0.6546708374215544,-0.7548854881540387,0.03942073571357337
-0.6051371664835601,0.13718770861933546,0.38185554791901366,-0.6499137327519319,-0.7589327767021726,0.040412627080908606
-0.6065005432374465,0.13556798224029795,0.38193928608971445,-0.6458954579559911,-0.7622933855091059,0.04156743678513388
-0.6078539142944712,0.1339456700667717,0.3820242371216852,-0.6425484536869459,-0.7650401324996631,0.04295439825457543
-0.6091979567806332,0.13232325734448963,0.38211194830702494,-0.6398564408101847,-0.7671942471210683,0.04468469914926023
-0.6105335160690832,0.13070119166613678,0.382203326984956,-0.6377789798152711,-0.7687964772870512,0.04679689537579014
-0.6118612204630864,0.12908183293831182,0.3822990517607104,-0.6362909473444733,-0.7698694074626339,0.049344967125388356
-0.613181359708917,0.12747011586345916,0.38240018710066526,-0.6353121986648667,-0.7704789581199434,0.0523506000158479
-0.6144943011958504,0.12586875561303734,0.3825079033231878,-0.6347405094178342,-0.7707091797048461,0.05578392261818427
-0.6158005010293471,0.12427679188555574,0.38262283091579796,-0.6344561217793196,-0.7706564443483014,0.05961605757829561
-0.617100492051516,0.12269338854780976,0.38274468538666445,-0.6343810646629544,-0.7703756817609078,0.06389032593838503
-0.6183942441247815,0.12112049156333357,0.3828743135601121,-0.6344403143166337,-0.7699123570260471,0.06870553157066472
-0.6196813393298385,0.11955932643351092,0.38301340306115184,-0.6345553954569773,-0.7693224334985899,0.07404352376978669
-0.6209621757169548,0.11800869449592286,0.3831633420880522,-0.6346906391762771,-0.7686247767194437,0.07989834262983364
-0.6222368430798593,0.11646581989075115,0.3833250146342725,-0.6348513521498778,-0.7678025343699859,0.08627299049238124
-0.6235049660429249,0.11493097419387999,0.38349895483941776,-0.635059344209673,-0.7668259510886489,0.0931535832320416
-0.6247664413624074,0.11340675064125287,0.3836862610857456,-0.6353187812687376,-0.7656833688285072,0.10049390462428073
-0.6260212968698818,0.11189279926607468,0.3838881345121849,-0.6356819728199393,-0.7643169460835696,0.10829605422745396
-0.6272700151283427,0.11038668031718037,0.38410500645838697,-0.6362430918414982,-0.7626196452509918,0.1166447802570796
-0.628513252861842,0.10888784550526556,0.3843377999693809,-0.6371776986838527,-0.7604284717847513,0.12551143214487298
-0.6297513401966638,0.10740008615531542,0.38458743348587404,-0.6385972461230489,-0.7576321127290992,0.13485970119238644
-0.6309848962379663,0.10592717083557476,0.3848549158438294,-0.6405618651170218,-0.7541540404848248,0.14467957761278993
-0.6322148364731063,0.10446975677339265,0.3851413283296504,-0.6431041751336952,-0.7499611061232141,0.15483978567556428
-0.6334420578820481,0.10302852233407823,0.3854465409930035,-0.6463092187927119,-0.7449723051600916,0.1652291083556827
-0.6346671465997094,0.10160713936683645,0.38577011587475796,-0.650269566790762,-0.7390927927882754,0.1757593074468097
-0.6358904488397337,0.10021114129386426,0.3861129061293665,-0.6549656297555945,-0.7323337011832209,0.18629915176978787
-0.6371125674056941,0.0988438654053266,0.38647588712319764,-0.6602588247713858,-0.724865621647754,0.19654036446675185
-0.6383341507609052,0.09750679467920285,0.3868578268152459,-0.6660237389765168,-0.7168905374533371,0.20610758459990322
-0.6395549378874695,0.09620154697683955,0.38725634422042854,-0.6721914626672919,-0.7085681608488296,0.21468534870482942
-0.6407739637517306,0.09493165418017577,0.3876686716423751,-0.6787320679346903,-0.7000467303421347,0.22193998128860346
-0.6419900608679907,0.09369857391498528,0.38809133740703156,-0.6855606480979388,-0.691555052436843,0.22750430156067222
-0.6432017083744607,0.09249978187313877,0.38851928168869304,-0.692559413053373,-0.6833842036136681,0.23097075495066513
-0.6444074055435344,0.09133343490197134,0.3889463854361532,-0.6996869852605478,-0.6757221931182179,0.2320293955181362
-0.6456051642980617,0.09019982611920391,0.3893675140993625,-0.7069703986039546,-0.6686385318425924,0.23046771841875854
-0.6467927524816678,0.08910063701676725,0.3897766228228215,-0.7144163689031809,-0.6622067107344218,0.226034342747937
-0.6479680917975144,0.08803384748119236,0.39016731159411255,-0.7220042223669565,-0.6564681983139666,0.2185392584564636
-0.6491292779642731,0.08699599819098361,0.3905338036833722,-0.7297750228711657,-0.6513235177647476,0.20786074954147524
-0.6502747633274628,0.08598577412793995,0.3908702225582191,-0.7378709077160029,-0.6464902220813626,0.1938992426482181
-0.6514033384960964,0.08500518746910575,0.3911719974228606,-0.7464005570652614,-0.6416185536510576,0.17666872961390898
-0.6525143390960423,0.08405706850802963,0.3914357180833061,-0.7553458081285997,-0.6364165228569099,0.15629049739914702
-0.6536074446922655,0.08314331520008911,0.3916583971387578,-0.7645246531912233,-0.6307661743447636,0.13280093360105164
-0.6546823532416716,0.08226476689814971,0.39183671581099583,-0.7737149129518673,-0.624567952206249,0.10620784600384763
-0.6557382324990043,0.08142163519461525,0.39196813827170385,-0.7827926423040538,-0.617532149142217,0.07674453681163637
-0.6567742444995577,0.08061503424684156,0.39205215539665916,-0.7916289263348251,-0.6093748908761241,0.044563273664352185
-0.657789604657361,0.07984506666783586,0.39208841792091803,-0.7999899551047486,-0.5999334578231201,0.009793769238484459
-0.6587836332934057,0.07911112163078035,0.3920771117180765,-0.8076515807873521,-0.5890173342865308,-0.02752278986004755
-0.6597556494017106,0.07841466944515746,0.39201871185021026,-0.8143661732587752,-0.5764360213708067,-0.06729969627014072
-0.6607046551977012,0.07775692894855245,0.39191427492835157,-0.8198470417479102,-0.5620439709863736,-0.10934990999113176
-0.6616299208776866,0.07713768216918596,0.391764279657801,-0.8237482102120774,-0.5457719607586035,-0.1535312770158201
-0.6625305854561424,0.07655463535902826,0.39156884254600943,-0.8256615725256977,-0.5277135234064347,-0.19950289438591667
-0.6634062468533831,0.076006517727534,0.3913286368743166,-0.8253215336342081,-0.5078753906490631,-0.24679334207538972
-0.6642569310449877,0.0754935154569092,0.39104421063323047,-0.8226575511742193,-0.4860926966464485,-0.2948702151167878
-0.6650828625213142,0.0750171382023252,0.3907164214538131,-0.8176342876873057,-0.46230767454555916,-0.3431410579548148
-0.6658845249211819,0.07457821114002916,0.3903458038003203,-0.8101954032857396,-0.43683037398468105,-0.39084860606002114
-0.6666624562971695,0.07417623926445328,0.38993364121164925,-0.8003452299653642,-0.41024610235672215,-0.4372020681250332
-0.6674174461414242,0.07380917906655302,0.38948158960360985,-0.788149921696394,-0.3834348738510937,-0.48145342292350973
-0.6681499093779921,0.07347326560409195,0.38899187672069924,-0.77399550257482,-0.35707235533203957,-0.5229056272900314
-0.6688609061715264,0.07316576175352249,0.3884685219017521,-0.7584196464054805,-0.3316214673335092,-0.5610943257151655
-0.6695513009548624,0.07288377181957528,0.38791491913046855,-0.7419178906993668,-0.3074771127673484,-0.5958319130295541
-0.6702220980198155,0.07262424690528202,0.38733493048181256,-0.7249770889122851,-0.2848437822178239,-0.6271142162988442
-0.67087415437481,0.07238592644059287,0.38673209164175737,-0.7079115936693944,-0.2639004889177444,-0.6551470884445979
-0.6715078525218949,0.07216602663750611,0.386109345705402,-0.6910031671659702,-0.2447959767163939,-0.6801393627412436
-0.672123715769283,0.07196177095255332,0.38546957891697514,-0.6743851029999448,-0.22758880070057763,-0.7024301179814448
-0.672721686031958,0.07177111316429123,0.38481509593513896,-0.6581907036674942,-0.21218163598333462,-0.7223322995388787
-0.6733019378066958,0.07159293298660002,0.3841486920157265,-0.642527241157781,-0.19825270484361787,-0.7401720133809168
-0.6738643737329005,0.07142674789413794,0.3834727169954034,-0.627439119052904,-0.18551066894143237,-0.7562446321072422
-0.6744090286243547,0.0712729093714879,0.38278963477797284,-0.6128704667243967,-0.173733776783864,-0.7708478227389857
-0.6749359688824302,0.07113119026201453,0.382101168057485,-0.5987626491581811,-0.162822350107855,-0.7842016145599495
-0.6754452396764293,0.07100124396562028,0.38140942442219516,-0.5850750153191152,-0.1529908375875714,-0.7964176228986841
-0.6759372690286133,0.07088246340584976,0.38071637109392403,-0.571667242963273,-0.144705732885667,-0.8076241788064497
-0.6764121718978021,0.07077239476628344,0.3800234018800411,-0.55845969572829,-0.13831073701205315,-0.8179198666582495
-0.6768706048841441,0.07066976875282747,0.3793321046339432,-0.5454410581364566,-0.13408319837897595,-0.8273546688158874
-0.6773126164039134,0.07057297793737646,0.3786433218644463,-0.5324989778411597,-0.13246194939248923,-0.8360015972241093
-0.6777382094428883,0.07047940331309151,0.37795825124162125,-0.5195872012319546,-0.13370191616394955,-0.8438915439379829
-0.6781472206986752,0.07038699986639416,0.37727769085089435,-0.5066502224395599,-0.13805968844848238,-0.8510258953330695
-0.6785391353645871,0.07029165516801132,0.3766025612323317,-0.49360367448358705,-0.1457969920150087,-0.8573789416912899
-0.6789137194860263,0.07019010774495796,0.3759345995104197,-0.48040881787256695,-0.15699626450256715,-0.8628786361027388
-0.679270398629345,0.07007928393615509,0.37527525263043904,-0.4669987539988409,-0.17160359465278,-0.8674470416490994
-0.6796090281708866,0.06995645498451313,0.37462658077420213,-0.4533852803132086,-0.1894776564264359,-0.8709420217847218
-0.6799294922454681,0.06981973191312707,0.3739904325150747,-0.4395085475226283,-0.2103503259741793,-0.8732611161715069
-0.6802319637214328,0.0696675473283129,0.3733689296706303,-0.42536922044680103,-0.2336949368239335,-0.8743269999258507
-0.6805165078436236,0.06949892076437124,0.37276304727614645,-0.41107383583087354,-0.25898765437359156,-0.8740387270466665
-0.6807833155574824,0.06931414984024019,0.37217356068656127,-0.39697134274329976,-0.28561226995812555,-0.8722610757622675
-0.6810327792229376,0.06911380623847342,0.371601439333565,-0.3835580203954824,-0.3129656629853581,-0.8688703808868352
-0.6812651312527308,0.06889844177581396,0.37104773208242975,-0.37137206330361455,-0.3405624822032222,-0.8637707950105723
-0.6814809615911419,0.0686711443415027,0.37051465419562474,-0.3611130924297984,-0.3679506551879788,-0.8568603444100591
-0.6816806766247053,0.06843544235039262,0.3700056677246086,-0.3533977957520316,-0.39513051137457206,-0.847927990420457
-0.6818650042608615,0.06819493092848042,0.36952577149436966,-0.34887999817492427,-0.4224393910831437,-0.8365570558753107
-0.6820349870639324,0.06795443876368253,0.36908046062156574,-0.3482550836581656,-0.45044666981662457,-0.8220804062604563
-0.6821917029011809,0.06771806738651734,0.36867655767978863,-0.3522279659680975,-0.4801137512851996,-0.8033842454372815
-0.6823365120117081,0.06749089379721178,0.3683207990430729,-0.3616253717662203,-0.512541761032619,-0.778799097131298
-0.6824706310366012,0.06727721129278237,0.36801897562172814,-0.37711502428262983,-0.5491678326164903,-0.7457874697791711
-0.682595273137405,0.06708070197848069,0.36777566103610076,-0.3991177613856281,-0.5917247432364829,-0.7004047692500696
-0.6827111813121628,0.06690366728671801,0.3675932127684089,-0.42703745252044656,-0.6415827657444919,-0.6371895862649483
-0.6828184594144756,0.06674628925644441,0.3674707746114666,-0.4582476057642941,-0.6986534936384767,-0.5494473838667749
-0.6829166719594564,0.06660725646104168,0.36740272422113257,-0.4868376426932211,-0.7594704377534589,-0.43150175415110104
-0.6830051058854625,0.06648340853906476,0.36738070372161047,-0.5036489227338531,-0.8159832132913526,-0.2837413580283078
-0.6830829745200157,0.06637055119600349,0.36739488932241754,-0.4991879288044884,-0.8583093187421954,-0.1188129837020907
-0.6831496748135854,0.06626438201049388,0.3674346640078146,-0.47043724639593837,-0.8815817466865197,0.03876107728833707
-0.6832051138065538,0.06616147453323865,0.367489738478726,-0.42390322370620426,-0.8903460745097364,0.1661021509089838
-0.6832496394366235,0.06605893140173584,0.36755093480587064,-0.36925470584952497,-0.8942456997489766,0.25293396507476823
-0.6832841341212239,0.06595505611334754,0.36761087132220427,-0.314102511630405,-0.9007018879496815,0.30012617551848214
-0.6833098533747725,0.06584960681755185,0.36766394351815795,-0.26290595527524446,-0.9123851450376705,0.3137416226696742
-0.6833282748531375,0.06574324834440827,0.367707011176681,-0.21753119673943191,-0.9281525721045077,0.3020148694036391
-0.6833408876506708,0.06563797672392573,0.36773908377254355,-0.18016683426497482,-0.9453051465331611,0.2719155967738075
-0.683349492367995,0.06553639610290231,0.3677601789176953,-0.1517251020468297,-0.9607176618757617,0.2323812978035212
-0.6833554358084382,0.06544337385561251,0.3677722744210138,-0.1335848394656352,-0.9728170861340937,0.18916132688927698
-0.6833597462061274,0.06536313244530607,0.36777774297398635,-0.1282810826352495,-0.9808716692464498,0.14640605283802843
-0.6833631229484971,0.06529894007445787,0.3677784163164195,-0.1424608806832632,-0.9841919024393234,0.10521975407600177
-0.683366111665008,0.06525310418729673,0.36777535926337834,-0.19846334983111893,-0.978201976601363,0.061099850629910586
